ply
format ascii 1.0
comment Created by Open3D
element vertex 1429
property double x
property double y
property double z
property uchar red
property uchar green
property uchar blue
end_header
1.44177 2.28647 9.78 177 176 168
1.45248 2.28647 9.78 182 179 169
1.46019 2.2818 9.76 177 174 164
1.46786 2.27712 9.74 189 184 174
1.47549 2.27245 9.72 170 165 155
1.4846 2.27011 9.71 166 161 151
1.49214 2.26543 9.69 159 154 144
1.50275 2.26543 9.69 151 150 142
0.308739 2.39349 10.19 128 132 132
0.319579 2.39114 10.18 134 138 138
0.330397 2.38879 10.17 132 136 136
0.341194 2.38644 10.16 148 152 152
0.351275 2.3794 10.13 143 147 146
0.361647 2.3747 10.11 141 145 144
0.371977 2.37 10.09 141 146 142
0.381123 2.35826 10.04 141 146 142
0.39016 2.34651 9.99 136 141 137
0.399891 2.33947 9.96 125 130 126
0.409143 2.33007 9.92 122 127 123
0.418308 2.32067 9.88 132 137 133
0.427385 2.31128 9.84 152 153 150
0.43593 2.29953 9.79 153 154 151
0.445277 2.29249 9.76 157 157 151
0.454092 2.28309 9.72 156 156 150
0.463297 2.27605 9.69 156 155 147
0.472926 2.27135 9.67 157 156 148
0.48201 2.2643 9.64 159 159 148
0.49154 2.2596 9.62 162 162 151
0.500505 2.25256 9.59 159 161 150
0.510469 2.25021 9.58 159 161 150
0.519868 2.24551 9.56 168 167 159
0.529223 2.24081 9.54 149 148 140
0.539099 2.23846 9.53 110 105 100
0.548954 2.23612 9.52 124 119 114
0.5582 2.23142 9.5 184 178 171
0.568 2.22907 9.49 182 176 169
0.577778 2.22672 9.48 173 168 158
0.587535 2.22437 9.47 176 171 161
0.597269 2.22202 9.46 170 165 155
0.606982 2.21967 9.45 166 161 151
0.616672 2.21732 9.44 161 155 148
0.627005 2.21732 9.44 159 153 146
0.636663 2.21498 9.43 161 155 148
0.646985 2.21498 9.43 165 159 152
0.657308 2.21498 9.43 165 159 152
0.66763 2.21498 9.43 165 159 152
0.677952 2.21498 9.43 166 159 154
0.686814 2.21028 9.41 167 160 155
0.697114 2.21028 9.41 167 161 154
0.707414 2.21028 9.41 167 161 154
0.717715 2.21028 9.41 167 161 154
0.728015 2.21028 9.41 166 160 153
0.738315 2.21028 9.41 166 160 153
0.748615 2.21028 9.41 166 160 153
0.758915 2.21028 9.41 165 159 152
0.768398 2.20793 9.4 165 159 152
0.778687 2.20793 9.4 163 157 150
0.788976 2.20793 9.4 162 156 149
0.799266 2.20793 9.4 161 156 151
0.809555 2.20793 9.4 164 159 154
0.819844 2.20793 9.4 164 159 154
0.830133 2.20793 9.4 164 159 154
0.840423 2.20793 9.4 160 154 152
0.851617 2.21028 9.41 160 154 152
0.861917 2.21028 9.41 163 158 153
0.872217 2.21028 9.41 164 159 154
0.882518 2.21028 9.41 163 158 153
0.892818 2.21028 9.41 161 156 151
0.903118 2.21028 9.41 154 153 145
0.913418 2.21028 9.41 148 147 139
0.923718 2.21028 9.41 144 144 138
0.934019 2.21028 9.41 123 123 117
0.944319 2.21028 9.41 90 95 91
0.954619 2.21028 9.41 85 90 86
0.964919 2.21028 9.41 82 83 80
0.976256 2.21263 9.42 109 110 107
0.987614 2.21498 9.43 148 146 140
0.997936 2.21498 9.43 159 157 151
1.00933 2.21732 9.44 159 154 149
1.01966 2.21732 9.44 157 152 147
1.03108 2.21967 9.45 157 152 147
1.04143 2.21967 9.45 158 153 148
1.05289 2.22202 9.46 157 152 147
1.06549 2.22672 9.48 156 151 146
1.077 2.22907 9.49 156 151 146
1.08853 2.23142 9.5 159 154 149
1.10125 2.23612 9.52 161 156 151
1.11283 2.23846 9.53 164 159 154
1.12562 2.24316 9.55 165 161 154
1.13727 2.24551 9.56 166 162 155
1.15013 2.25021 9.58 166 162 155
1.16304 2.25491 9.6 165 161 154
1.17477 2.25726 9.61 163 159 152
1.18652 2.2596 9.62 165 161 154
1.1983 2.26195 9.63 163 162 154
1.21135 2.26665 9.65 159 158 150
1.22191 2.26665 9.65 159 158 150
1.23375 2.269 9.66 150 149 141
1.24561 2.27135 9.67 147 145 139
1.2575 2.2737 9.68 154 152 146
1.2694 2.27605 9.69 151 148 145
1.28133 2.27839 9.7 149 146 143
1.29328 2.28074 9.71 146 144 144
1.33063 2.29014 9.75 140 140 140
1.34267 2.29249 9.76 135 135 135
1.35613 2.29719 9.78 136 136 136
1.36684 2.29719 9.78 129 133 132
1.37754 2.29719 9.78 132 136 135
1.38825 2.29719 9.78 171 171 171
1.39752 2.29484 9.77 165 165 165
1.40677 2.29249 9.76 173 173 167
1.41746 2.29249 9.76 181 181 175
1.42668 2.29014 9.75 181 178 168
1.43735 2.29014 9.75 177 174 164
1.44654 2.28779 9.74 179 174 164
1.4557 2.28544 9.73 176 171 161
1.46334 2.28074 9.71 170 165 155
1.47245 2.27839 9.7 165 160 150
1.48307 2.27839 9.7 156 152 145
1.49214 2.27605 9.69 153 149 142
0.318951 2.39757 10.16 133 139 139
0.330073 2.39757 10.16 117 123 123
0.340858 2.39521 10.15 130 136 136
0.351275 2.39049 10.13 142 148 147
0.362005 2.38813 10.12 138 144 143
0.372345 2.38341 10.1 140 145 141
0.381882 2.37397 10.06 141 146 142
0.391332 2.36453 10.02 149 154 150
0.401095 2.35745 9.99 155 160 156
0.410793 2.35038 9.96 152 157 153
0.420002 2.34094 9.92 140 145 141
0.428688 2.32914 9.87 133 138 134
0.437266 2.31734 9.82 136 141 137
0.44619 2.3079 9.78 162 161 153
0.455493 2.30082 9.75 159 158 150
0.464253 2.29138 9.71 158 158 147
0.473415 2.2843 9.68 156 156 145
0.48251 2.27722 9.65 161 161 150
0.492051 2.2725 9.63 161 161 150
0.501548 2.26778 9.61 157 159 148
0.511002 2.26306 9.59 155 157 146
0.520411 2.25834 9.57 157 156 148
0.529777 2.25362 9.55 156 155 147
0.539665 2.25126 9.54 148 143 138
0.549531 2.2489 9.53 110 105 100
0.558787 2.24418 9.51 134 128 121
0.568598 2.24182 9.5 181 175 168
0.578388 2.23946 9.49 174 169 159
0.588155 2.2371 9.48 170 165 155
0.598532 2.2371 9.48 172 167 157
0.607624 2.23238 9.46 172 167 157
0.617326 2.23002 9.45 175 169 162
0.62767 2.23002 9.45 165 159 152
0.637338 2.22766 9.44 174 167 162
0.647672 2.22766 9.44 172 165 160
0.658005 2.22766 9.44 165 158 153
0.66763 2.2253 9.43 165 158 153
0.677952 2.2253 9.43 166 159 154
0.688274 2.2253 9.43 167 160 155
0.698596 2.2253 9.43 167 160 155
0.708166 2.22295 9.42 167 160 155
0.718477 2.22295 9.42 167 161 154
0.728015 2.22059 9.41 166 160 153
0.738315 2.22059 9.41 167 161 154
0.748615 2.22059 9.41 166 160 153
0.758915 2.22059 9.41 166 160 153
0.769215 2.22059 9.41 165 159 152
0.778687 2.21823 9.4 165 159 152
0.788976 2.21823 9.4 165 159 152
0.799266 2.21823 9.4 163 158 153
0.809555 2.21823 9.4 164 159 154
0.819844 2.21823 9.4 165 160 155
0.831017 2.22059 9.41 165 160 155
0.840423 2.21823 9.4 160 154 152
0.851617 2.22059 9.41 160 154 152
0.861917 2.22059 9.41 163 158 153
0.872217 2.22059 9.41 163 158 153
0.882518 2.22059 9.41 163 158 153
0.892818 2.22059 9.41 163 158 153
0.904078 2.22295 9.42 157 156 148
0.914389 2.22295 9.42 151 150 142
0.9247 2.22295 9.42 131 132 124
0.935011 2.22295 9.42 117 118 110
0.945322 2.22295 9.42 103 104 101
0.955633 2.22295 9.42 101 102 99
0.96697 2.2253 9.43 103 102 99
0.977292 2.2253 9.43 144 143 140
0.987614 2.2253 9.43 155 153 147
0.998994 2.22766 9.44 158 156 150
1.00933 2.22766 9.44 157 155 149
1.02074 2.23002 9.45 156 154 148
1.03218 2.23238 9.46 155 153 147
1.04363 2.23474 9.47 156 154 148
1.05511 2.2371 9.48 155 153 147
1.06661 2.23946 9.49 154 152 146
1.07813 2.24182 9.5 154 152 146
1.08968 2.24418 9.51 158 156 150
1.1024 2.2489 9.53 160 155 150
1.114 2.25126 9.54 165 160 155
1.1268 2.25598 9.56 167 163 156
1.13846 2.25834 9.57 166 162 155
1.15133 2.26306 9.59 167 163 156
1.16304 2.26542 9.6 166 162 155
1.17599 2.27014 9.62 164 160 153
1.18776 2.2725 9.63 165 161 154
1.19954 2.27486 9.64 165 162 152
1.21135 2.27722 9.65 165 162 152
1.22318 2.27958 9.66 165 162 152
1.23375 2.27958 9.66 159 156 146
1.2469 2.2843 9.68 153 152 144
1.2588 2.28666 9.69 158 157 149
1.2694 2.28666 9.69 156 155 147
1.28133 2.28902 9.7 153 152 144
1.29328 2.29138 9.71 153 151 145
1.3066 2.2961 9.73 154 152 146
1.3186 2.29846 9.74 153 151 145
1.33063 2.30082 9.75 153 151 145
1.34267 2.30318 9.76 152 152 146
1.35336 2.30318 9.76 154 154 148
1.36544 2.30554 9.77 160 160 154
1.37472 2.30318 9.76 174 174 168
1.38541 2.30318 9.76 187 185 179
1.39466 2.30082 9.75 184 182 176
1.40389 2.29846 9.74 180 178 172
1.4131 2.2961 9.73 179 177 171
1.42375 2.2961 9.73 180 177 167
1.43293 2.29374 9.72 175 172 162
1.44357 2.29374 9.72 173 170 160
1.45121 2.28902 9.7 170 167 157
1.46183 2.28902 9.7 169 163 156
1.47093 2.28666 9.69 168 162 155
1.48154 2.28666 9.69 156 151 146
1.49214 2.28666 9.69 150 145 140
0.329423 2.40396 10.14 123 129 129
0.340522 2.40396 10.14 128 134 134
0.351275 2.40159 10.13 134 140 140
0.362363 2.40159 10.13 135 141 141
0.372714 2.39685 10.11 133 137 136
0.382641 2.38973 10.08 136 140 139
0.392113 2.38025 10.04 144 148 147
0.401898 2.37314 10.01 149 153 152
0.41203 2.3684 9.99 147 151 150
0.421272 2.35891 9.95 140 144 143
0.430426 2.34943 9.91 133 138 134
0.439047 2.33758 9.86 133 138 134
0 0 0 162 160 154
0.456428 2.31624 9.77 158 156 150
0.465209 2.30676 9.73 157 156 148
0.474393 2.29964 9.7 156 155 147
0.48351 2.29253 9.67 157 156 148
0.492562 2.28542 9.64 158 157 149
0.50207 2.28068 9.62 158 157 149
0.511002 2.27357 9.59 157 156 148
0.520955 2.2712 9.58 156 155 147
0.530887 2.26882 9.57 153 152 144
0.540796 2.26645 9.56 158 153 148
0.550108 2.26171 9.54 139 134 129
0.559962 2.25934 9.53 109 105 98
0.569795 2.25697 9.52 131 127 120
0.579607 2.2546 9.51 186 181 171
0.589396 2.25223 9.5 179 174 164
0.599163 2.24986 9.49 172 167 157
0.608909 2.24749 9.48 173 168 158
0.617979 2.24275 9.46 173 168 158
0.628334 2.24275 9.46 176 171 161
0.638014 2.24038 9.45 176 169 164
0.648358 2.24038 9.45 165 158 153
0.658005 2.238 9.44 160 153 148
0.668338 2.238 9.44 166 159 154
0.678671 2.238 9.44 167 160 155
0.689004 2.238 9.44 167 160 155
0.698596 2.23563 9.43 166 159 154
0.708918 2.23563 9.43 167 160 155
0.71924 2.23563 9.43 167 160 155
0.728788 2.23326 9.42 166 159 154
0.7391 2.23326 9.42 166 160 153
0.748615 2.23089 9.41 167 161 154
0.758915 2.23089 9.41 167 161 154
0.769215 2.23089 9.41 166 160 153
0.778687 2.22852 9.4 167 161 154
0.788976 2.22852 9.4 167 161 154
0.800116 2.23089 9.41 164 159 154
0.809555 2.22852 9.4 163 158 153
0.820717 2.23089 9.41 164 159 154
0.831017 2.23089 9.41 165 160 155
0.841317 2.23089 9.41 161 155 153
0.851617 2.23089 9.41 163 157 155
0.862833 2.23326 9.42 163 158 153
0.873144 2.23326 9.42 161 156 151
0.884393 2.23563 9.43 161 156 151
0.894715 2.23563 9.43 161 156 151
0.905037 2.23563 9.43 160 156 149
0.915359 2.23563 9.43 157 153 146
0.925682 2.23563 9.43 154 153 145
0.936004 2.23563 9.43 150 149 141
0.946326 2.23563 9.43 132 130 124
0.956648 2.23563 9.43 112 110 104
0.96697 2.23563 9.43 150 147 144
0.978328 2.238 9.44 147 144 141
0.988661 2.238 9.44 136 133 130
1.00005 2.24038 9.45 157 154 151
1.0104 2.24038 9.45 159 157 151
1.02182 2.24275 9.46 153 151 145
1.03327 2.24512 9.47 153 151 145
1.04473 2.24749 9.48 156 154 148
1.05622 2.24986 9.49 158 156 150
1.06774 2.25223 9.5 154 152 146
1.07927 2.2546 9.51 149 147 141
1.09197 2.25934 9.53 157 155 149
1.10356 2.26171 9.54 158 156 150
1.11517 2.26408 9.55 161 159 153
1.12798 2.26882 9.57 165 161 154
1.13965 2.2712 9.58 166 162 155
1.15133 2.27357 9.59 167 163 156
1.16425 2.27831 9.61 165 161 154
1.17599 2.28068 9.62 165 162 152
1.18776 2.28305 9.63 165 162 152
1.20079 2.28779 9.65 168 163 153
1.21261 2.29016 9.66 169 164 154
1.22318 2.29016 9.66 169 164 154
1.23503 2.29253 9.67 170 165 155
1.2469 2.2949 9.68 158 155 145
1.2588 2.29727 9.69 160 157 147
1.2694 2.29727 9.69 163 160 150
1.28133 2.29964 9.7 164 161 151
1.29328 2.30202 9.71 159 158 150
1.3066 2.30676 9.73 157 156 148
1.31725 2.30676 9.73 161 160 152
1.33063 2.3115 9.75 166 165 157
1.3413 2.3115 9.75 172 171 163
1.35336 2.31387 9.76 171 170 162
1.36404 2.31387 9.76 178 177 169
1.37332 2.3115 9.75 184 183 175
1.38399 2.3115 9.75 180 176 169
1.3918 2.30676 9.73 180 176 169
1.40245 2.30676 9.73 180 176 169
1.41165 2.30439 9.72 180 176 169
1.42229 2.30439 9.72 181 177 170
1.43145 2.30202 9.71 175 171 164
1.4406 2.29964 9.7 175 171 164
1.45121 2.29964 9.7 171 167 160
1.46183 2.29964 9.7 163 158 153
1.47245 2.29964 9.7 152 147 142
1.4846 2.30202 9.71 145 139 137
0.33985 2.4103 10.12 130 139 138
0.350928 2.4103 10.12 133 139 139
0.362005 2.4103 10.12 133 139 139
0.372714 2.40792 10.11 131 137 136
0.383021 2.40316 10.09 126 132 131
0.393284 2.39839 10.07 131 137 136
0.403103 2.39125 10.04 140 146 145
0.412855 2.3841 10.01 146 152 151
0.422542 2.37696 9.98 144 150 149
0.431294 2.36505 9.93 132 139 135
0.439937 2.35314 9.88 137 144 140
0.448927 2.34361 9.84 157 157 151
0.457362 2.33171 9.79 155 155 149
0 0 0 155 155 149
0.474882 2.31265 9.71 155 155 149
0.48401 2.30551 9.68 157 155 149
0.493073 2.29836 9.65 157 155 149
0.502592 2.2936 9.63 156 154 148
0.512068 2.28883 9.61 156 154 148
0.521499 2.28407 9.59 156 154 148
0.531442 2.28169 9.58 155 153 147
0.541362 2.27931 9.57 157 155 149
0.551261 2.27693 9.56 161 159 153
0.56055 2.27216 9.54 138 134 127
0.570394 2.26978 9.53 106 102 95
0.580216 2.2674 9.52 141 134 124
0.590016 2.26502 9.51 179 172 162
0.599795 2.26264 9.5 173 169 157
0.609551 2.26025 9.49 173 169 157
0.619285 2.25787 9.48 173 168 158
0.628998 2.25549 9.47 170 165 155
0.638689 2.25311 9.46 169 162 157
0.649044 2.25311 9.46 172 165 160
0.658702 2.25073 9.45 166 159 154
0.669046 2.25073 9.45 163 156 151
0.679389 2.25073 9.45 167 160 155
0.689004 2.24835 9.44 166 159 154
0.699337 2.24835 9.44 166 159 154
0.70967 2.24835 9.44 167 160 155
0.71924 2.24596 9.43 167 161 154
0.729562 2.24596 9.43 166 160 153
0.739884 2.24596 9.43 166 160 153
0.749411 2.24358 9.42 167 161 154
0.758915 2.2412 9.41 167 161 154
0.769215 2.2412 9.41 166 160 153
0.779516 2.2412 9.41 167 161 154
0.789816 2.2412 9.41 167 161 154
0.800116 2.2412 9.41 165 159 152
0.810416 2.2412 9.41 165 159 152
0.820717 2.2412 9.41 163 158 153
0.831017 2.2412 9.41 165 160 155
0.841317 2.2412 9.41 161 156 151
0.852522 2.24358 9.42 163 158 153
0.863749 2.24596 9.43 163 158 153
0.874071 2.24596 9.43 160 155 150
0.884393 2.24596 9.43 160 155 150
0.894715 2.24596 9.43 161 156 151
0.905037 2.24596 9.43 160 156 149
0.915359 2.24596 9.43 158 154 147
0.926663 2.24835 9.44 161 160 152
0.936996 2.24835 9.44 151 150 142
0.947329 2.24835 9.44 130 128 122
0.957662 2.24835 9.44 123 121 115
0.967995 2.24835 9.44 168 166 160
0.979365 2.25073 9.45 155 153 147
0.989709 2.25073 9.45 141 139 133
1.00111 2.25311 9.46 153 151 145
1.01147 2.25311 9.46 162 160 154
1.02398 2.25787 9.48 151 149 143
1.03436 2.25787 9.48 151 148 145
1.04584 2.26025 9.49 149 146 143
1.05734 2.26264 9.5 144 143 140
1.06886 2.26502 9.51 142 141 138
1.08154 2.26978 9.53 144 143 140
1.09312 2.27216 9.54 154 153 150
1.10472 2.27454 9.55 166 166 160
1.11517 2.27454 9.55 160 160 154
1.12916 2.28169 9.58 164 162 156
1.14083 2.28407 9.59 165 163 157
1.15253 2.28645 9.6 166 162 155
1.16546 2.29122 9.62 166 162 155
1.17722 2.2936 9.63 165 162 152
1.19022 2.29836 9.65 165 162 152
1.20203 2.30074 9.66 168 164 152
1.21386 2.30312 9.67 168 164 152
1.22571 2.30551 9.68 168 164 152
1.23631 2.30551 9.68 167 163 151
1.24819 2.30789 9.69 165 161 149
1.2601 2.31027 9.7 160 156 144
1.27071 2.31027 9.7 173 171 159
1.28265 2.31265 9.71 174 172 160
1.29461 2.31503 9.72 165 162 152
1.3066 2.31742 9.73 168 165 155
1.31725 2.31742 9.73 170 170 159
1.33063 2.32218 9.75 175 175 164
1.3413 2.32218 9.75 177 177 166
1.35197 2.32218 9.75 176 176 165
1.36264 2.32218 9.75 180 177 167
1.37191 2.3198 9.74 180 177 167
1.38115 2.31742 9.73 179 176 166
1.39037 2.31503 9.72 179 176 166
1.40101 2.31503 9.72 178 178 167
1.4102 2.31265 9.71 182 182 171
1.41936 2.31027 9.7 178 177 169
1.42998 2.31027 9.7 171 170 162
1.4406 2.31027 9.7 164 163 155
1.45121 2.31027 9.7 157 156 148
1.46183 2.31027 9.7 157 151 149
0.350581 2.41899 10.11 132 141 140
0.361647 2.41899 10.11 131 140 139
0.372714 2.41899 10.11 131 137 137
0.383021 2.41421 10.09 132 138 138
0.393675 2.41182 10.08 133 139 139
0.403906 2.40703 10.06 133 139 139
0.41368 2.39985 10.03 132 138 138
0.423812 2.39507 10.01 133 139 139
0.432597 2.3831 9.96 133 139 138
0.440828 2.36875 9.9 140 146 145
0.449839 2.35918 9.86 159 160 157
0.458296 2.34721 9.81 154 155 152
0.466644 2.33525 9.76 153 155 149
0.47586 2.32807 9.73 153 155 149
0.48451 2.3185 9.69 155 155 149
0.493584 2.31132 9.66 154 154 148
0.503114 2.30654 9.64 154 154 148
0.5126 2.30175 9.62 154 154 148
0.522587 2.29936 9.61 154 153 150
0.532551 2.29697 9.6 154 153 150
0.542494 2.29458 9.59 155 153 147
0.552414 2.29218 9.58 162 160 154
0.561725 2.2874 9.56 163 158 153
0.571591 2.285 9.55 139 134 129
0.581435 2.28261 9.54 109 103 96
0.591257 2.28022 9.53 145 139 132
0.600426 2.27543 9.51 187 182 172
0.610193 2.27304 9.5 182 177 167
0.619939 2.27065 9.49 173 168 158
0.629662 2.26826 9.48 170 165 155
0.640039 2.26826 9.48 170 164 157
0.64973 2.26586 9.47 170 164 157
0.660096 2.26586 9.47 170 163 158
0.669754 2.26347 9.46 170 163 158
0.680108 2.26347 9.46 167 160 155
0.689734 2.26108 9.45 166 159 154
0.700077 2.26108 9.45 166 159 154
0.710421 2.26108 9.45 167 160 155
0.720003 2.25869 9.44 167 160 155
0.730336 2.25869 9.44 167 160 155
0.739884 2.25629 9.43 167 161 154
0.750206 2.25629 9.43 167 161 154
0.760528 2.25629 9.43 168 162 155
0.770033 2.2539 9.42 167 161 154
0.779516 2.25151 9.41 166 160 153
0.789816 2.25151 9.41 165 159 152
0.800116 2.25151 9.41 165 159 152
0.810416 2.25151 9.41 165 159 152
0.821589 2.2539 9.42 164 159 154
0.8319 2.2539 9.42 164 159 154
0.843105 2.25629 9.43 163 158 153
0.853427 2.25629 9.43 163 158 153
0.863749 2.25629 9.43 163 158 153
0.874071 2.25629 9.43 161 156 151
0.885331 2.25869 9.44 160 155 150
0.895664 2.25869 9.44 160 155 150
0.905997 2.25869 9.44 160 155 150
0.91633 2.25869 9.44 157 152 147
0.926663 2.25869 9.44 155 153 147
0.937989 2.26108 9.45 157 155 149
0.948333 2.26108 9.45 149 147 141
0.958677 2.26108 9.45 150 148 142
0.969021 2.26108 9.45 156 154 148
0.980401 2.26347 9.46 153 151 145
0.990756 2.26347 9.46 154 152 146
1.00217 2.26586 9.47 154 152 146
1.0136 2.26826 9.48 155 153 147
1.02506 2.27065 9.49 151 149 143
1.03654 2.27304 9.5 150 148 142
1.04804 2.27543 9.51 148 146 140
1.05845 2.27543 9.51 142 141 138
1.07111 2.28022 9.53 139 138 135
1.08267 2.28261 9.54 142 142 142
1.09426 2.285 9.55 152 152 152
1.10587 2.2874 9.56 155 156 153
1.11751 2.28979 9.57 157 158 155
1.13034 2.29458 9.59 159 159 153
1.14202 2.29697 9.6 161 161 155
1.15373 2.29936 9.61 163 162 154
1.16668 2.30415 9.63 166 165 157
1.17844 2.30654 9.64 163 163 152
1.19146 2.31132 9.66 162 162 151
1.20203 2.31132 9.66 167 163 149
1.21512 2.31611 9.68 167 163 149
1.22698 2.3185 9.69 165 161 147
1.23758 2.3185 9.69 167 163 149
1.24948 2.32089 9.7 169 165 151
1.2601 2.32089 9.7 168 164 150
1.27202 2.32329 9.71 173 169 155
1.28397 2.32568 9.72 170 166 152
1.29461 2.32568 9.72 170 168 156
1.3066 2.32807 9.73 172 170 158
1.31995 2.33286 9.75 175 173 161
1.33063 2.33286 9.75 179 177 165
1.3413 2.33286 9.75 178 175 165
1.35197 2.33286 9.75 179 176 166
1.36264 2.33286 9.75 179 176 166
1.37191 2.33047 9.74 180 177 167
1.38115 2.32807 9.73 179 176 166
1.39037 2.32568 9.72 181 178 168
1.40101 2.32568 9.72 177 177 166
1.4102 2.32329 9.71 165 165 154
1.41936 2.32089 9.7 166 165 157
1.42998 2.32089 9.7 158 157 149
1.4406 2.32089 9.7 153 151 145
1.45271 2.32329 9.71 158 156 150
0.349887 2.42526 10.09 132 141 140
0.360932 2.42526 10.09 131 140 139
0.371977 2.42526 10.09 130 139 138
0.382641 2.42286 10.08 129 138 137
0.393675 2.42286 10.08 130 139 138
0.403906 2.41805 10.06 123 132 131
0.414092 2.41324 10.04 124 133 132
0.423812 2.40603 10.01 130 139 138
0.433466 2.39882 9.98 132 141 139
0.442164 2.3868 9.93 132 141 139
0.450752 2.37479 9.88 157 158 155
0.459231 2.36277 9.83 155 156 153
0.4676 2.35075 9.78 158 160 154
0.476838 2.34354 9.75 155 157 151
0.48551 2.33392 9.71 155 157 151
0.494606 2.32671 9.68 150 152 146
0.504158 2.32191 9.66 151 152 149
0.513666 2.3171 9.64 152 153 150
0.523674 2.31469 9.63 153 152 149
0.533661 2.31229 9.62 155 154 151
0.543625 2.30989 9.61 154 154 148
0.553567 2.30748 9.6 153 153 147
0.563488 2.30508 9.59 157 155 149
0.572788 2.30027 9.57 168 166 160
0.582654 2.29787 9.56 150 145 140
0.591878 2.29306 9.54 111 106 101
0.601689 2.29066 9.53 136 132 125
0.610836 2.28585 9.51 166 162 155
0.620592 2.28345 9.5 179 175 168
0.630991 2.28345 9.5 168 164 157
0.640714 2.28104 9.49 168 164 157
0.650416 2.27864 9.48 168 164 157
0.660793 2.27864 9.48 168 164 157
0.67117 2.27864 9.48 167 163 156
0.680827 2.27624 9.47 165 160 155
0.690463 2.27383 9.46 164 159 154
0.700818 2.27383 9.46 164 159 154
0.710421 2.27143 9.45 165 160 155
0.720765 2.27143 9.45 166 162 155
0.730336 2.26903 9.44 164 160 153
0.740669 2.26903 9.44 165 161 154
0.751002 2.26903 9.44 164 160 153
0.760528 2.26662 9.43 167 161 154
0.77085 2.26662 9.43 165 159 152
0.780344 2.26422 9.42 165 159 152
0.790655 2.26422 9.42 162 156 149
0.800966 2.26422 9.42 163 157 150
0.812139 2.26662 9.43 167 161 154
0.822461 2.26662 9.43 167 161 154
0.832783 2.26662 9.43 166 160 153
0.843105 2.26662 9.43 161 156 151
0.854332 2.26903 9.44 163 158 153
0.864665 2.26903 9.44 164 159 154
0.874998 2.26903 9.44 161 156 151
0.885331 2.26903 9.44 160 155 150
0.896613 2.27143 9.45 160 155 150
0.906957 2.27143 9.45 160 155 150
0.917301 2.27143 9.45 157 152 147
0.927645 2.27143 9.45 155 150 145
0.937989 2.27143 9.45 156 151 146
0.949336 2.27383 9.46 154 152 146
0.959691 2.27383 9.46 154 152 146
0.971072 2.27624 9.47 154 152 146
0.981437 2.27624 9.47 153 151 145
0.992851 2.27864 9.48 153 151 145
1.00429 2.28104 9.49 153 151 145
1.01467 2.28104 9.49 153 151 145
1.02614 2.28345 9.5 150 148 142
1.03763 2.28585 9.51 147 147 141
1.05024 2.29066 9.53 146 146 140
1.06068 2.29066 9.53 135 139 138
1.07223 2.29306 9.54 132 136 135
1.08381 2.29547 9.55 128 134 133
1.09655 2.30027 9.57 137 143 142
1.10703 2.30027 9.57 138 145 141
1.11984 2.30508 9.59 134 141 137
1.13269 2.30989 9.61 146 152 145
1.1444 2.31229 9.62 146 152 145
1.15613 2.31469 9.63 159 160 152
1.16789 2.3171 9.64 169 170 162
1.18088 2.32191 9.66 162 162 151
1.19269 2.32431 9.67 161 161 150
1.20452 2.32671 9.68 163 161 149
1.21763 2.33152 9.7 163 161 149
1.22824 2.33152 9.7 165 163 149
1.23886 2.33152 9.7 170 168 154
1.25077 2.33392 9.71 170 166 152
1.26269 2.33633 9.72 167 163 149
1.27464 2.33873 9.73 167 163 149
1.2853 2.33873 9.73 168 164 150
1.29728 2.34113 9.74 172 168 154
1.30928 2.34354 9.75 175 171 157
1.32131 2.34594 9.76 172 170 158
1.33199 2.34594 9.76 175 173 161
1.34267 2.34594 9.76 175 173 161
1.35336 2.34594 9.76 180 178 166
1.36404 2.34594 9.76 185 183 171
1.37332 2.34354 9.75 180 178 166
1.38115 2.33873 9.73 166 164 152
1.3918 2.33873 9.73 180 178 166
1.40101 2.33633 9.72 184 181 171
1.41165 2.33633 9.72 157 154 144
1.42082 2.33392 9.71 157 156 148
1.43145 2.33392 9.71 151 150 142
1.44357 2.33633 9.72 148 146 140
0.360217 2.43148 10.07 128 137 136
0.371608 2.4339 10.08 123 132 131
0.382641 2.4339 10.08 119 128 127
0.393284 2.43148 10.07 126 135 134
0.403906 2.42907 10.06 126 135 134
0.414092 2.42424 10.04 126 135 134
0.424659 2.42183 10.03 130 139 138
0.4339 2.41217 9.99 129 138 136
0.442609 2.40009 9.94 121 130 128
0.451664 2.39044 9.9 129 134 130
0.460165 2.37836 9.85 139 144 140
0.469034 2.36871 9.81 151 152 149
0.477816 2.35905 9.77 166 167 164
0.48651 2.34939 9.73 158 159 156
0.495628 2.34214 9.7 150 151 148
0.505202 2.33732 9.68 151 152 149
0.514732 2.33249 9.66 149 150 147
0.524762 2.33007 9.65 146 147 144
0.53477 2.32766 9.64 155 156 153
0.544756 2.32524 9.63 157 156 153
0.554721 2.32283 9.62 156 155 152
0.564663 2.32041 9.61 157 155 149
0.573985 2.31558 9.59 161 159 153
0.583873 2.31317 9.58 163 158 153
0.593739 2.31076 9.57 135 130 125
0.602951 2.30593 9.55 109 104 99
0.612763 2.30351 9.54 129 124 119
0.621898 2.29868 9.52 185 181 174
0.631655 2.29627 9.51 180 176 169
0.641389 2.29385 9.5 177 173 166
0.651102 2.29144 9.49 172 168 161
0.66149 2.29144 9.49 168 164 157
0.671878 2.29144 9.49 167 163 156
0.681546 2.28902 9.48 166 162 155
0.691923 2.28902 9.48 165 161 154
0.701559 2.28661 9.47 164 160 153
0.711173 2.2842 9.46 164 160 153
0.721528 2.2842 9.46 164 160 153
0.731109 2.28178 9.45 164 160 153
0.741453 2.28178 9.45 161 157 150
0.751002 2.27937 9.44 161 157 150
0.761335 2.27937 9.44 165 159 152
0.77085 2.27695 9.43 163 157 150
0.781173 2.27695 9.43 161 155 148
0.791495 2.27695 9.43 162 156 149
0.801817 2.27695 9.43 163 157 150
0.812139 2.27695 9.43 168 162 155
0.823333 2.27937 9.44 167 161 154
0.833666 2.27937 9.44 165 159 152
0.843999 2.27937 9.44 161 157 150
0.854332 2.27937 9.44 165 161 154
0.865581 2.28178 9.45 163 158 153
0.875925 2.28178 9.45 161 156 151
0.886269 2.28178 9.45 160 155 150
0.896613 2.28178 9.45 160 155 150
0.907917 2.2842 9.46 160 155 150
0.918272 2.2842 9.46 157 152 147
0.928626 2.2842 9.46 157 152 147
0.938981 2.2842 9.46 157 152 147
0.95034 2.28661 9.47 154 152 146
0.96172 2.28902 9.48 154 152 146
0.972097 2.28902 9.48 153 151 145
0.98351 2.29144 9.49 153 151 145
0.993898 2.29144 9.49 153 151 145
1.00534 2.29385 9.5 151 149 143
1.01681 2.29627 9.51 149 147 141
1.0283 2.29868 9.52 149 147 141
1.03981 2.3011 9.53 147 147 141
1.05135 2.30351 9.54 142 142 136
1.0629 2.30593 9.55 134 138 138
1.07448 2.30834 9.56 127 131 131
1.14559 2.32524 9.63 135 142 138
1.15854 2.33007 9.65 143 149 142
1.1691 2.33007 9.65 148 154 147
1.18211 2.3349 9.67 151 152 144
1.19392 2.33732 9.68 156 157 149
1.20576 2.33973 9.69 156 156 145
1.21888 2.34456 9.71 158 158 147
1.23078 2.34697 9.72 162 163 150
1.24142 2.34697 9.72 162 163 150
1.25206 2.34697 9.72 167 165 151
1.26399 2.34939 9.73 165 163 149
1.27595 2.3518 9.74 164 162 148
1.28794 2.35422 9.75 165 163 149
1.29861 2.35422 9.75 170 166 154
1.31062 2.35663 9.76 173 169 157
1.32402 2.36146 9.78 175 171 159
1.33472 2.36146 9.78 174 170 158
1.34405 2.35905 9.77 177 173 161
1.35474 2.35905 9.77 172 168 156
1.36404 2.35663 9.76 179 176 166
1.37332 2.35422 9.75 172 169 159
1.38399 2.35422 9.75 159 158 150
1.3918 2.34939 9.73 164 163 155
1.40101 2.34697 9.72 151 150 142
1.41165 2.34697 9.72 148 147 139
1.42229 2.34697 9.72 147 146 138
0.359143 2.43524 10.04 126 135 134
0.370502 2.43766 10.05 124 133 132
0.381503 2.43766 10.05 122 131 130
0.392113 2.43524 10.04 123 132 131
0.403103 2.43524 10.04 128 137 136
0.41368 2.43281 10.03 124 133 132
0.423812 2.42796 10.01 121 130 129
0.433466 2.42069 9.98 116 125 124
0.442609 2.41098 9.94 118 127 126
0.451664 2.40128 9.9 134 139 135
0.460632 2.39158 9.86 140 145 141
0.469513 2.38188 9.82 143 144 141
0.478305 2.37217 9.78 144 145 142
0.48751 2.3649 9.75 142 143 140
0.49665 2.35762 9.72 151 152 149
0.505724 2.35034 9.69 154 155 152
0.515797 2.34792 9.68 153 154 151
0.525849 2.34549 9.67 160 161 158
0.535879 2.34307 9.66 154 155 152
0.545888 2.34064 9.65 155 154 151
0.555874 2.33822 9.64 156 155 152
0.565251 2.33337 9.62 158 155 152
0.575182 2.33094 9.61 157 154 151
0.584482 2.32609 9.59 157 152 147
0.594359 2.32366 9.58 150 145 140
0.604214 2.32124 9.57 150 148 142
0.613405 2.31639 9.55 108 106 100
0.623205 2.31396 9.54 120 118 112
0.632319 2.30911 9.52 165 163 157
0.642065 2.30668 9.51 178 174 167
0.652474 2.30668 9.51 175 171 164
0.662187 2.30426 9.5 171 167 160
0.672585 2.30426 9.5 171 167 160
0.682265 2.30183 9.49 167 163 156
0.692653 2.30183 9.49 165 161 154
0.703041 2.30183 9.49 164 160 153
0.712677 2.29941 9.48 163 159 152
0.722291 2.29698 9.47 163 159 152
0.731883 2.29456 9.46 164 160 153
0.742238 2.29456 9.46 161 157 150
0.751797 2.29213 9.45 160 156 149
0.762141 2.29213 9.45 160 156 149
0.772485 2.29213 9.45 161 157 150
0.782001 2.28971 9.44 161 157 150
0.792334 2.28971 9.44 160 156 149
0.802667 2.28971 9.44 161 157 150
0.813861 2.29213 9.45 166 162 155
0.824205 2.29213 9.45 164 160 153
0.834549 2.29213 9.45 161 157 150
0.844893 2.29213 9.45 163 159 152
0.855237 2.29213 9.45 165 161 154
0.865581 2.29213 9.45 160 156 149
0.876852 2.29456 9.46 159 155 148
0.887207 2.29456 9.46 161 157 150
0.897562 2.29456 9.46 160 156 149
0.907917 2.29456 9.46 159 155 148
0.919242 2.29698 9.47 156 152 145
0.928626 2.29456 9.46 155 154 146
0.940967 2.29941 9.48 153 152 144
0.951343 2.29941 9.48 153 151 145
0.96172 2.29941 9.48 151 149 143
0.973122 2.30183 9.49 151 149 143
0.984547 2.30426 9.5 153 151 145
0.995993 2.30668 9.51 151 151 145
1.0064 2.30668 9.51 155 155 149
1.01895 2.31154 9.53 146 145 142
1.02938 2.31154 9.53 137 136 133
1.042 2.31639 9.55 139 140 137
1.05355 2.31881 9.56 138 139 136
1.06513 2.32124 9.57 121 126 129
1.17152 2.34549 9.67 137 144 140
1.18333 2.34792 9.68 139 144 140
1.19516 2.35034 9.69 141 146 142
1.20701 2.35277 9.7 142 144 138
1.22014 2.35762 9.72 151 153 147
1.23078 2.35762 9.72 156 158 147
1.24142 2.35762 9.72 160 162 151
1.25334 2.36005 9.73 168 168 157
1.26529 2.36247 9.74 165 165 154
1.27726 2.3649 9.75 161 161 150
1.28926 2.36732 9.76 164 164 153
1.30127 2.36975 9.77 163 163 152
1.31331 2.37217 9.78 161 161 150
1.32402 2.37217 9.78 159 159 148
1.33609 2.3746 9.79 165 165 154
1.3468 2.3746 9.79 170 169 161
1.35613 2.37217 9.78 168 167 159
1.36684 2.37217 9.78 171 170 162
1.37472 2.36732 9.76 158 157 149
1.38399 2.3649 9.75 134 133 130
1.39466 2.3649 9.75 141 140 137
1.40245 2.36005 9.73 145 145 139
0.369396 2.44136 10.02 125 134 133
0.380364 2.44136 10.02 125 134 133
0.391332 2.44136 10.02 126 135 134
0.401898 2.43893 10.01 130 139 138
0.41203 2.43405 9.99 123 132 131
0.422542 2.43162 9.98 122 131 130
0.432163 2.42431 9.95 123 129 128
0.441718 2.417 9.92 132 138 137
0.451208 2.40969 9.89 134 139 135
0.460165 2.39994 9.85 135 140 136
0.469513 2.39263 9.82 128 133 129
0.478305 2.38289 9.78 130 135 131
0.48801 2.37801 9.76 150 150 150
0.497161 2.3707 9.73 152 152 152
0.506768 2.36583 9.71 154 154 154
0.516863 2.3634 9.7 155 155 155
0.526937 2.36096 9.69 155 155 155
0.537544 2.36096 9.69 154 154 154
0.547585 2.35852 9.68 155 154 151
0.557027 2.35365 9.66 156 155 152
0.567013 2.35121 9.65 156 155 152
0.576379 2.34634 9.63 154 153 150
0.585701 2.34147 9.61 152 152 146
0.59498 2.33659 9.59 153 153 147
0.604845 2.33416 9.58 158 156 150
0.614047 2.32928 9.56 149 147 141
0.623205 2.32441 9.54 109 107 101
0.633647 2.32441 9.54 115 113 107
0.643415 2.32197 9.53 156 155 147
0.65316 2.31954 9.52 176 175 167
0.662884 2.3171 9.51 173 172 164
0.673293 2.3171 9.51 169 168 160
0.682984 2.31467 9.5 168 164 157
0.693383 2.31467 9.5 166 162 155
0.703041 2.31223 9.49 166 162 155
0.713428 2.31223 9.49 166 162 155
0.723054 2.30979 9.48 161 157 150
0.73343 2.30979 9.48 171 167 160
0.743023 2.30736 9.47 167 163 156
0.753388 2.30736 9.47 164 160 153
0.762948 2.30492 9.46 164 160 153
0.773303 2.30492 9.46 164 160 153
0.783658 2.30492 9.46 165 161 154
0.793173 2.30248 9.45 161 157 150
0.803517 2.30248 9.45 163 159 152
0.814722 2.30492 9.46 170 166 159
0.825077 2.30492 9.46 158 154 147
0.835432 2.30492 9.46 160 156 149
0.846681 2.30736 9.47 161 157 150
0.857047 2.30736 9.47 163 159 152
0.867413 2.30736 9.47 160 156 149
0.877779 2.30736 9.47 156 152 145
0.888145 2.30736 9.47 156 152 145
0.899459 2.30979 9.48 160 156 149
0.909836 2.30979 9.48 158 154 147
0.920213 2.30979 9.48 155 151 144
0.93059 2.30979 9.48 156 152 145
0.940967 2.30979 9.48 153 149 142
0.952347 2.31223 9.49 150 149 141
0.962735 2.31223 9.49 149 148 140
0.974148 2.31467 9.5 149 147 141
0.985583 2.3171 9.51 150 148 142
0.99704 2.31954 9.52 139 139 133
1.00852 2.32197 9.53 144 144 138
1.02002 2.32441 9.54 138 139 136
1.03154 2.32685 9.55 138 139 136
1.04418 2.33172 9.57 137 141 141
1.05576 2.33416 9.58 113 117 117
1.06735 2.33659 9.59 109 116 120
1.20701 2.3634 9.7 125 129 128
1.22014 2.36827 9.72 137 141 140
1.23078 2.36827 9.72 135 140 136
1.24142 2.36827 9.72 143 148 144
1.25334 2.3707 9.73 150 151 148
1.26529 2.37314 9.74 153 154 151
1.27726 2.37558 9.75 158 160 154
1.28926 2.37801 9.76 157 159 153
1.29994 2.37801 9.76 151 153 147
1.31331 2.38289 9.78 151 153 147
1.32537 2.38532 9.79 151 153 147
1.33609 2.38532 9.79 154 156 150
1.3468 2.38532 9.79 152 151 148
1.35752 2.38532 9.79 153 152 149
1.36684 2.38289 9.78 153 151 151
1.37613 2.38045 9.77 144 142 142
0.379225 2.445 9.99 124 132 134
0.39016 2.445 9.99 126 134 136
0.400694 2.44255 9.98 126 134 136
0.411205 2.4401 9.97 122 131 130
0.421695 2.43765 9.96 121 130 129
0.431294 2.43031 9.93 124 130 129
0.441273 2.42542 9.91 146 152 151
0.450296 2.41563 9.87 141 145 144
0.459698 2.40828 9.84 133 137 136
0.469513 2.40339 9.82 129 133 132
0.478794 2.39605 9.79 135 139 138
0.48801 2.3887 9.76 160 160 160
0.497672 2.38381 9.74 154 154 154
0.507811 2.38136 9.73 153 153 153
0.517929 2.37892 9.72 154 154 154
0.528025 2.37647 9.71 154 154 154
0.538098 2.37402 9.7 154 154 154
0.54815 2.37157 9.69 154 155 152
0.55818 2.36913 9.68 153 154 151
0.567601 2.36423 9.66 153 154 151
0.577576 2.36178 9.65 151 152 149
0.58692 2.35689 9.63 155 154 151
0.59622 2.35199 9.61 163 162 159
0.605477 2.3471 9.59 158 156 150
0.614689 2.3422 9.57 165 163 157
0.624511 2.33976 9.56 153 151 145
0.634312 2.33731 9.55 118 116 110
0.64409 2.33486 9.54 110 111 103
0.653846 2.33241 9.53 153 154 146
0.664278 2.33241 9.53 175 175 169
0.674001 2.32997 9.52 178 178 172
0.684422 2.32997 9.52 168 167 159
0.694113 2.32752 9.51 164 163 155
0.704522 2.32752 9.51 163 162 154
0.71418 2.32507 9.5 164 163 155
0.723816 2.32262 9.49 164 163 155
0.734204 2.32262 9.49 165 164 156
0.744592 2.32262 9.49 164 163 155
0.754184 2.32018 9.48 162 161 153
0.764561 2.32018 9.48 162 161 153
0.774938 2.32018 9.48 163 162 154
0.784486 2.31773 9.47 161 160 152
0.794852 2.31773 9.47 158 157 149
0.805218 2.31773 9.47 161 160 152
0.816445 2.32018 9.48 163 162 154
0.826822 2.32018 9.48 156 155 147
0.837198 2.32018 9.48 157 156 148
0.847575 2.32018 9.48 157 156 148
0.857952 2.32018 9.48 158 157 149
0.869245 2.32262 9.49 157 157 146
0.879633 2.32262 9.49 158 158 147
0.89002 2.32262 9.49 158 158 147
0.900408 2.32262 9.49 157 157 146
0.910796 2.32262 9.49 155 155 144
0.921184 2.32262 9.49 154 154 143
0.931571 2.32262 9.49 152 153 145
0.941959 2.32262 9.49 149 150 142
0.952347 2.32262 9.49 148 149 141
0.963749 2.32507 9.5 146 147 139
0.975173 2.32752 9.51 146 146 140
0.986619 2.32997 9.52 145 145 139
0.998087 2.33241 9.53 140 142 136
1.00958 2.33486 9.54 140 142 136
1.02109 2.33731 9.55 133 137 136
1.0337 2.3422 9.57 128 132 131
1.04527 2.34465 9.58 118 121 124
1.05796 2.34955 9.6 98 101 104
1.28926 2.3887 9.76 126 130 130
1.30261 2.3936 9.78 123 129 129
1.31465 2.39605 9.79 128 134 134
1.32537 2.39605 9.79 139 145 145
0.388988 2.44856 9.96 119 127 129
0.399891 2.44856 9.96 122 130 132
0.409968 2.44365 9.94 122 130 132
0.420425 2.44119 9.93 130 138 140
0.430426 2.43627 9.91 132 141 140
0.439937 2.4289 9.88 139 148 147
0.449383 2.42152 9.85 142 148 147
0.459231 2.4166 9.83 130 136 135
0.469034 2.41169 9.81 130 134 133
0.478794 2.40677 9.79 132 136 135
0.48801 2.3994 9.76 142 142 142
0.498183 2.39694 9.75 154 154 154
0.508333 2.39448 9.74 151 151 151
0.518462 2.39202 9.73 153 153 153
0.529112 2.39202 9.73 153 153 153
0.539208 2.38956 9.72 154 154 154
0.549282 2.3871 9.71 153 153 153
0.558757 2.38219 9.69 152 152 152
0.568776 2.37973 9.68 152 153 150
0.578175 2.37481 9.66 152 153 150
0.58753 2.36989 9.64 153 154 151
0.596841 2.36498 9.62 155 156 153
0.606108 2.36006 9.6 161 161 155
0.615332 2.35514 9.58 153 153 147
0.625165 2.35269 9.57 154 154 148
0.634312 2.34777 9.55 148 148 142
0.644765 2.34777 9.55 125 125 119
0.654532 2.34531 9.54 121 121 115
0.664975 2.34531 9.54 127 127 121
0.674709 2.34285 9.53 166 166 160
0.685141 2.34285 9.53 175 173 167
0.695572 2.34285 9.53 164 162 156
0.705263 2.34039 9.52 162 161 153
0.715684 2.34039 9.52 163 162 154
0.725342 2.33794 9.51 163 162 154
0.734978 2.33548 9.5 162 161 153
0.745376 2.33548 9.5 161 160 152
0.755775 2.33548 9.5 161 160 152
0.766174 2.33548 9.5 162 161 153
0.775755 2.33302 9.49 162 161 153
0.786143 2.33302 9.49 159 158 150
0.796531 2.33302 9.49 158 157 149
0.806918 2.33302 9.49 158 157 149
0.817306 2.33302 9.49 154 153 145
0.828566 2.33548 9.5 155 154 146
0.838965 2.33548 9.5 157 156 148
0.849363 2.33548 9.5 157 157 146
0.859762 2.33548 9.5 156 156 145
0.870161 2.33548 9.5 155 155 144
0.88056 2.33548 9.5 154 154 143
0.890958 2.33548 9.5 153 153 142
0.901357 2.33548 9.5 154 154 143
0.911756 2.33548 9.5 153 155 144
0.922154 2.33548 9.5 153 155 144
0.932553 2.33548 9.5 152 154 143
0.942952 2.33548 9.5 148 150 139
0.954354 2.33794 9.51 145 148 140
0.964764 2.33794 9.51 144 147 139
0.977224 2.34285 9.53 142 145 137
0.987656 2.34285 9.53 142 145 137
0.999135 2.34531 9.54 144 150 143
1.01064 2.34777 9.55 135 141 134
1.02323 2.35269 9.57 121 125 125
1.03478 2.35514 9.58 115 119 119
1.04745 2.36006 9.6 105 110 113
0.398285 2.4496 9.92 121 129 131
0.408731 2.44713 9.91 123 131 133
0.418731 2.44219 9.89 137 145 147
0.428688 2.43725 9.87 133 141 143
0.438601 2.43231 9.85 112 120 122
0.448471 2.42737 9.83 117 126 125
0.458296 2.42243 9.81 121 130 129
0.468078 2.41749 9.79 125 131 130
0.478305 2.41502 9.78 127 133 132
0.48801 2.41009 9.76 137 137 137
0.498183 2.40762 9.75 151 151 151
0.508333 2.40515 9.74 150 150 150
0.518995 2.40515 9.74 151 151 151
0.529112 2.40268 9.73 150 150 150
0.539763 2.40268 9.73 150 150 150
0.549847 2.40021 9.72 150 150 150
0.559334 2.39527 9.7 150 150 150
0.569364 2.3928 9.69 150 151 148
0.578175 2.38539 9.66 151 152 149
0.588139 2.38292 9.65 152 153 150
0.597461 2.37798 9.63 153 154 151
0.60674 2.37305 9.61 152 154 148
0.615974 2.36811 9.59 150 152 146
0.625818 2.36564 9.58 150 152 146
0.63564 2.36317 9.57 151 153 147
0.646115 2.36317 9.57 154 154 148
0.655905 2.3607 9.56 132 132 126
0.665672 2.35823 9.55 117 117 111
0.676125 2.35823 9.55 121 121 115
0.686579 2.35823 9.55 160 160 154
0.696302 2.35576 9.54 169 169 163
0.706745 2.35576 9.54 162 163 155
0.717187 2.35576 9.54 161 162 154
0.726867 2.35329 9.53 161 162 154
0.737299 2.35329 9.53 161 162 154
0.74773 2.35329 9.53 163 162 154
0.757366 2.35082 9.52 161 160 152
0.767787 2.35082 9.52 164 163 155
0.77739 2.34835 9.51 161 160 152
0.7878 2.34835 9.51 159 158 150
0.798209 2.34835 9.51 158 157 149
0.808619 2.34835 9.51 156 157 149
0.819029 2.34835 9.51 156 157 149
0.83031 2.35082 9.52 155 156 148
0.840731 2.35082 9.52 154 155 147
0.851152 2.35082 9.52 151 153 142
0.861572 2.35082 9.52 153 155 144
0.871993 2.35082 9.52 153 155 144
0.882413 2.35082 9.52 151 153 142
0.892834 2.35082 9.52 147 151 140
0.903255 2.35082 9.52 147 151 140
0.913675 2.35082 9.52 146 150 139
0.924096 2.35082 9.52 143 147 136
0.934516 2.35082 9.52 144 148 137
0.944937 2.35082 9.52 144 148 137
0.956361 2.35329 9.53 144 147 139
0.966793 2.35329 9.53 143 146 138
0.978249 2.35576 9.54 134 142 135
0.989728 2.35823 9.55 131 139 132
1.00123 2.3607 9.56 133 140 136
1.01275 2.36317 9.57 127 134 130
1.0243 2.36564 9.58 119 124 127
1.03694 2.37058 9.6 111 116 119
0.407493 2.45054 9.88 111 119 121
0.417885 2.44806 9.87 118 126 128
0.42782 2.4431 9.85 139 147 149
0.437711 2.43814 9.83 133 141 143
0.447558 2.43318 9.81 132 139 143
0.457362 2.42822 9.79 132 139 143
0.4676 2.42574 9.78 123 128 131
0.477327 2.42078 9.76 116 121 124
0.48801 2.42078 9.76 119 123 123
0.498183 2.4183 9.75 132 136 136
0.508333 2.41582 9.74 146 146 146
0.518995 2.41582 9.74 157 157 157
0.529656 2.41582 9.74 151 151 151
0.539763 2.41334 9.73 150 150 150
0.549847 2.41086 9.72 149 149 149
0.55991 2.40838 9.71 150 150 150
0.569364 2.40341 9.69 150 151 148
0.578773 2.39845 9.67 151 152 149
0.588749 2.39597 9.66 152 153 150
0.598082 2.39101 9.64 152 153 150
0.607371 2.38605 9.62 152 154 148
0.617259 2.38357 9.61 151 153 147
0.626471 2.37861 9.59 150 152 146
0.636304 2.37613 9.58 149 151 145
0.646791 2.37613 9.58 155 157 151
0.656591 2.37365 9.57 154 156 150
0.667066 2.37365 9.57 137 138 135
0.677541 2.37365 9.57 119 120 117
0.687298 2.37117 9.56 113 118 114
0.697762 2.37117 9.56 142 147 143
0.707486 2.36869 9.55 165 167 161
0.717939 2.36869 9.55 164 166 160
0.728393 2.36869 9.55 163 164 156
0.738846 2.36869 9.55 163 164 156
0.748515 2.36621 9.54 168 169 161
0.758957 2.36621 9.54 168 169 161
0.7694 2.36621 9.54 168 167 159
0.779842 2.36621 9.54 162 161 153
0.790285 2.36621 9.54 158 157 149
0.800727 2.36621 9.54 156 155 147
0.81117 2.36621 9.54 153 154 146
0.821612 2.36621 9.54 153 154 146
0.832055 2.36621 9.54 153 154 146
0.842497 2.36621 9.54 152 153 145
0.85294 2.36621 9.54 151 152 144
0.863382 2.36621 9.54 151 152 144
0.873825 2.36621 9.54 149 152 144
0.884267 2.36621 9.54 149 152 144
0.89471 2.36621 9.54 147 150 142
0.905152 2.36621 9.54 146 149 141
0.915595 2.36621 9.54 145 148 140
0.926037 2.36621 9.54 144 147 139
0.93648 2.36621 9.54 143 146 138
0.946922 2.36621 9.54 142 145 137
0.957365 2.36621 9.54 139 146 137
0.967807 2.36621 9.54 135 142 133
0.979275 2.36869 9.55 131 139 132
0.991801 2.37365 9.57 128 136 129
1.00332 2.37613 9.58 123 130 126
1.01381 2.37613 9.58 126 133 129
1.02537 2.37861 9.59 123 128 131
0.416614 2.4514 9.84 100 108 110
0.426517 2.44642 9.82 107 114 118
0.43682 2.44392 9.81 119 126 130
0.446646 2.43894 9.79 125 131 138
0.456895 2.43645 9.78 126 132 139
0.466644 2.43147 9.76 122 129 133
0.477327 2.43147 9.76 118 125 129
0.48751 2.42898 9.75 119 123 123
0.497672 2.42649 9.74 132 136 136
0.507811 2.42399 9.73 146 150 149
0.518462 2.42399 9.73 146 150 149
0.529112 2.42399 9.73 144 148 147
0.539763 2.42399 9.73 147 151 150
0.549847 2.4215 9.72 146 150 149
0.55991 2.41901 9.71 146 150 149
0.569364 2.41403 9.69 147 152 148
0.579372 2.41154 9.68 147 152 148
0.588749 2.40656 9.66 147 153 146
0.598702 2.40406 9.65 148 154 147
0.608002 2.39908 9.63 151 153 147
0.617901 2.39659 9.62 150 152 146
0.627778 2.3941 9.61 149 151 145
0.636968 2.38912 9.59 149 151 145
0.647466 2.38912 9.59 149 151 145
0.657277 2.38663 9.58 145 147 141
0.667763 2.38663 9.58 142 148 141
0.678249 2.38663 9.58 150 156 149
0.688736 2.38663 9.58 124 131 127
0.698492 2.38413 9.57 119 126 122
0.708967 2.38413 9.57 133 139 132
0.719443 2.38413 9.57 155 161 154
0.729918 2.38413 9.57 174 177 169
0.73962 2.38164 9.56 165 168 160
0.750869 2.38413 9.57 160 163 155
0.760548 2.38164 9.56 159 162 154
0.771013 2.38164 9.56 161 162 154
0.781477 2.38164 9.56 159 160 152
0.791942 2.38164 9.56 157 158 150
0.802406 2.38164 9.56 154 155 147
0.81287 2.38164 9.56 153 154 146
0.823335 2.38164 9.56 152 153 145
0.834671 2.38413 9.57 151 152 144
0.845147 2.38413 9.57 151 152 144
0.854728 2.38164 9.56 147 150 142
0.866097 2.38413 9.57 147 150 142
0.876573 2.38413 9.57 146 149 141
0.887048 2.38413 9.57 145 148 140
0.896585 2.38164 9.56 143 150 141
0.90705 2.38164 9.56 142 149 140
0.917514 2.38164 9.56 142 149 140
0.927978 2.38164 9.56 139 146 137
0.937461 2.37915 9.55 139 146 137
0.948907 2.38164 9.56 135 142 133
0.958368 2.37915 9.55 134 140 133
0.969836 2.38164 9.56 133 139 132
0.981326 2.38413 9.57 128 136 129
0.992837 2.38663 9.58 128 136 129
1.00437 2.38912 9.59 126 135 133
1.01593 2.39161 9.6 129 138 136
0.445733 2.44466 9.77 101 106 115
0.455961 2.44216 9.76 112 117 126
0.466166 2.43966 9.75 126 131 140
0.476349 2.43715 9.74 124 129 138
0.48651 2.43465 9.73 120 124 129
0.497161 2.43465 9.73 125 129 134
0.507811 2.43465 9.73 137 143 142
0.518462 2.43465 9.73 139 145 144
0.529112 2.43465 9.73 144 150 149
0.539208 2.43215 9.72 144 150 149
0.549847 2.43215 9.72 141 147 146
0.559334 2.42715 9.7 141 147 146
0.569364 2.42464 9.69 143 148 144
0.579372 2.42214 9.68 143 148 144
0.588749 2.41714 9.66 148 153 149
0.599322 2.41714 9.66 146 151 147
0.608634 2.41213 9.64 147 153 146
0.618543 2.40963 9.63 146 152 145
0.628431 2.40713 9.62 147 149 143
0.638297 2.40463 9.61 146 148 142
0.648816 2.40463 9.61 144 146 140
0.658649 2.40212 9.6 144 146 140
0.66846 2.39962 9.59 142 148 141
0.678957 2.39962 9.59 151 157 150
0.689455 2.39962 9.59 126 133 129
0.699222 2.39712 9.58 128 135 131
0.709708 2.39712 9.58 119 125 118
0.720194 2.39712 9.58 115 121 114
0.730681 2.39712 9.58 140 142 136
0.741167 2.39712 9.58 160 162 156
0.751653 2.39712 9.58 167 170 162
0.762139 2.39712 9.58 162 165 157
0.772626 2.39712 9.58 160 163 155
0.783112 2.39712 9.58 157 160 152
0.793598 2.39712 9.58 157 158 150
0.804085 2.39712 9.58 155 156 148
0.814571 2.39712 9.58 160 161 153
0.825057 2.39712 9.58 162 163 155
0.835543 2.39712 9.58 160 162 156
0.84603 2.39712 9.58 150 152 146
0.856516 2.39712 9.58 145 147 141
0.867002 2.39712 9.58 146 148 142
0.878404 2.39962 9.59 145 147 141
0.888902 2.39962 9.59 145 147 141
0.898461 2.39712 9.58 143 149 142
0.908947 2.39712 9.58 143 149 142
0.919434 2.39712 9.58 142 148 141
0.92992 2.39712 9.58 140 146 139
0.940406 2.39712 9.58 137 143 136
0.9499 2.39462 9.57 135 141 134
0.960375 2.39462 9.57 132 140 133
0.97085 2.39462 9.57 130 138 131
0.982351 2.39712 9.58 126 136 131
0.993874 2.39962 9.59 130 140 135
1.00542 2.40212 9.6 123 132 131
0.465209 2.44531 9.73 96 103 112
0.47586 2.44531 9.73 103 110 119
0.48601 2.4428 9.72 129 135 142
0.49665 2.4428 9.72 131 137 144
0.507289 2.4428 9.72 132 141 140
0.517929 2.4428 9.72 131 140 139
0.528568 2.4428 9.72 127 138 136
0.538653 2.44028 9.71 136 147 145
0.549282 2.44028 9.71 135 147 142
0.559334 2.43777 9.7 135 147 142
0.569364 2.43526 9.69 138 145 141
0.579372 2.43274 9.68 133 140 136
0.589358 2.43023 9.67 138 145 141
0.599322 2.42772 9.66 138 145 141
0.609265 2.4252 9.65 143 149 142
0.619186 2.42269 9.64 142 148 141
0.629084 2.42018 9.63 141 147 140
0.638961 2.41767 9.62 141 147 140
0.649491 2.41767 9.62 141 147 140
0.659335 2.41515 9.61 141 147 140
0.669854 2.41515 9.61 142 148 141
0.680373 2.41515 9.61 149 155 148
0.690174 2.41264 9.6 132 140 133
0.699952 2.41013 9.59 132 140 133
0.710449 2.41013 9.59 131 139 132
0.720946 2.41013 9.59 124 132 125
0.731443 2.41013 9.59 117 125 118
0.741941 2.41013 9.59 121 129 122
0.752438 2.41013 9.59 143 149 142
0.762935 2.41013 9.59 154 160 153
0.773432 2.41013 9.59 162 168 161
0.78393 2.41013 9.59 161 167 160
0.794427 2.41013 9.59 157 159 153
0.804924 2.41013 9.59 155 157 151
0.815421 2.41013 9.59 154 160 153
0.825918 2.41013 9.59 155 161 154
0.836416 2.41013 9.59 156 162 155
0.846913 2.41013 9.59 159 165 158
0.85741 2.41013 9.59 147 153 146
0.867907 2.41013 9.59 147 153 146
0.87932 2.41264 9.6 146 152 145
0.889829 2.41264 9.6 143 149 142
0.900337 2.41264 9.6 144 150 143
0.910845 2.41264 9.6 144 150 143
0.920393 2.41013 9.59 141 149 142
0.930891 2.41013 9.59 141 149 142
0.941388 2.41013 9.59 137 145 138
0.951885 2.41013 9.59 137 145 138
0.962382 2.41013 9.59 144 152 145
0.972879 2.41013 9.59 141 149 142
0.983377 2.41013 9.59 125 134 132
0.99491 2.41264 9.6 118 127 125
0.495628 2.4484 9.7 108 115 124
0.506246 2.4484 9.7 115 129 132
0.516863 2.4484 9.7 127 141 144
0.527481 2.4484 9.7 138 154 152
0.538098 2.4484 9.7 142 158 156
0.54815 2.44587 9.69 138 154 151
0.558757 2.44587 9.69 134 150 147
0.568776 2.44335 9.68 133 145 140
0.579372 2.44335 9.68 130 142 137
0.588749 2.4383 9.66 131 141 136
0.599322 2.4383 9.66 130 140 135
0.609265 2.43577 9.65 133 141 134
0.619186 2.43325 9.64 138 146 139
0.629084 2.43073 9.63 135 143 136
0.638961 2.4282 9.62 139 147 140
0.649491 2.4282 9.62 139 147 140
0.660021 2.4282 9.62 138 146 139
0.670551 2.4282 9.62 138 146 139
0.680373 2.42568 9.61 141 149 142
0.690892 2.42568 9.61 135 143 136
0.700682 2.42315 9.6 133 141 134
0.71119 2.42315 9.6 132 140 133
0.721698 2.42315 9.6 131 139 132
0.731443 2.42063 9.59 132 140 133
0.741941 2.42063 9.59 130 138 131
0.752438 2.42063 9.59 124 132 125
0.762935 2.42063 9.59 120 128 121
0.773432 2.42063 9.59 121 128 124
0.78393 2.42063 9.59 142 149 145
0.794427 2.42063 9.59 149 155 154
0.804924 2.42063 9.59 159 165 164
0.815421 2.42063 9.59 160 167 163
0.82678 2.42315 9.6 155 162 158
0.837288 2.42315 9.6 156 163 159
0.847796 2.42315 9.6 156 163 159
0.858304 2.42315 9.6 148 153 149
0.869717 2.42568 9.61 147 152 148
0.880236 2.42568 9.61 147 154 150
0.890755 2.42568 9.61 149 156 152
0.901275 2.42568 9.61 142 149 145
0.911794 2.42568 9.61 142 149 145
0.922313 2.42568 9.61 140 147 143
0.932832 2.42568 9.61 141 148 144
0.943351 2.42568 9.61 140 147 143
0.95387 2.42568 9.61 141 148 144
0.963386 2.42315 9.6 139 146 142
0.973894 2.42315 9.6 132 139 135
0.985427 2.42568 9.61 119 128 127
0.526393 2.45395 9.68 87 106 108
0.536989 2.45395 9.68 106 125 127
0.547585 2.45395 9.68 124 141 142
0.55818 2.45395 9.68 132 149 150
0.568189 2.45142 9.67 138 151 149
0.578175 2.44888 9.66 136 149 147
0.588749 2.44888 9.66 133 146 144
0.598702 2.44635 9.65 127 140 138
0.609265 2.44635 9.65 128 138 133
0.619186 2.44381 9.64 128 138 133
0.629084 2.44128 9.63 129 139 134
0.639625 2.44128 9.63 133 143 138
0.650166 2.44128 9.63 137 145 138
0.660021 2.43874 9.62 138 146 139
0.670551 2.43874 9.62 138 146 139
0.681081 2.43874 9.62 137 145 138
0.690892 2.4362 9.61 138 146 139
0.701411 2.4362 9.61 138 146 139
