ply
format ascii 1.0
comment Created by Open3D
element vertex 1428
property double x
property double y
property double z
property uchar red
property uchar green
property uchar blue
end_header
2.33884 2.67128 9.51 67 72 75
2.34925 2.67128 9.51 48 50 55
-0.643692 2.70425 9.59 97 97 91
-0.633855 2.70707 9.6 113 121 114
-0.623996 2.70989 9.61 118 126 119
-0.614115 2.71271 9.62 106 114 107
-0.603585 2.71271 9.62 106 114 107
-0.593055 2.71271 9.62 107 115 108
-0.583131 2.71553 9.63 109 117 110
-0.57259 2.71553 9.63 115 117 111
-0.562049 2.71553 9.63 116 118 112
-0.550935 2.71271 9.62 116 118 112
-0.540405 2.71271 9.62 115 117 111
-0.529875 2.71271 9.62 115 117 111
-0.518805 2.70989 9.61 115 117 111
-0.507757 2.70707 9.6 115 117 111
-0.496731 2.70425 9.59 116 118 112
-0.485727 2.70143 9.58 116 117 114
-0.473752 2.69297 9.55 117 118 115
-0.462814 2.69015 9.54 118 119 116
-0.451897 2.68733 9.53 118 119 116
-0.440539 2.68169 9.51 118 119 116
-0.429225 2.67605 9.49 122 123 120
-0.417954 2.67041 9.47 121 123 117
-0.406728 2.66477 9.45 118 120 114
-0.395964 2.66195 9.44 121 121 115
-0.385223 2.65914 9.43 123 123 117
-0.374105 2.6535 9.41 121 121 115
-0.363419 2.65068 9.4 114 114 108
-0.352378 2.64504 9.38 118 122 121
-0.341381 2.6394 9.36 123 127 126
-0.330428 2.63376 9.34 149 153 152
-0.319519 2.62812 9.32 163 167 166
-0.308985 2.6253 9.31 162 169 165
-0.298153 2.61966 9.29 159 166 162
-0.287674 2.61684 9.28 157 164 160
-0.277217 2.61402 9.27 155 162 158
-0.266782 2.6112 9.26 156 163 159
-0.256369 2.60838 9.25 161 168 164
-0.245978 2.60556 9.24 156 163 159
-0.235608 2.60274 9.23 157 164 160
-0.225016 2.5971 9.21 157 164 160
-0.214702 2.59428 9.2 157 164 160
-0.204409 2.59146 9.19 159 166 162
-0.194138 2.58864 9.18 157 164 160
-0.183889 2.58582 9.17 156 163 159
-0.173662 2.583 9.16 156 163 159
-0.163636 2.583 9.16 155 162 158
-0.153441 2.58018 9.15 159 166 162
-0.143426 2.58018 9.15 161 168 164
-0.13341 2.58018 9.15 160 167 163
-0.123395 2.58018 9.15 160 167 163
-0.113503 2.583 9.16 160 167 163
-0.103589 2.58582 9.17 160 167 163
-0.0936539 2.58864 9.18 160 167 163
-0.0836055 2.58864 9.18 157 164 160
-0.0736372 2.59146 9.19 156 163 159
-0.0635086 2.58864 9.18 157 162 158
-0.0534602 2.58864 9.18 159 164 160
-0.0434117 2.58864 9.18 159 164 160
-0.033327 2.58582 9.17 159 164 160
-0.0232895 2.58582 9.17 161 167 160
-0.0132376 2.583 9.16 159 165 158
-0.00321101 2.583 9.16 161 167 160
0.00680808 2.58018 9.15 161 167 160
0.0168237 2.58018 9.15 164 166 160
0.0268393 2.58018 9.15 164 166 160
0.0368549 2.58018 9.15 162 165 157
0.0468705 2.58018 9.15 164 167 159
0.0569482 2.583 9.16 162 164 158
0.0669748 2.583 9.16 162 164 158
0.0769172 2.58018 9.15 162 164 158
0.0869328 2.58018 9.15 161 163 157
0.0969484 2.58018 9.15 162 163 160
0.106964 2.58018 9.15 168 169 166
0.11698 2.58018 9.15 166 167 164
0.126995 2.58018 9.15 157 158 155
0.136861 2.57736 9.14 158 163 159
0.147026 2.58018 9.15 158 163 159
0.15687 2.57736 9.14 155 162 158
0.166875 2.57736 9.14 155 162 158
0.17688 2.57736 9.14 156 163 159
0.18668 2.57454 9.13 156 163 159
0.196458 2.57172 9.12 158 163 159
0.206441 2.57172 9.12 161 166 162
0.216424 2.57172 9.12 162 167 163
0.226158 2.5689 9.11 161 166 162
0.235612 2.56326 9.09 161 166 162
0.245561 2.56326 9.09 162 167 163
0.255511 2.56326 9.09 163 168 164
0.265461 2.56326 9.09 164 169 165
0.275108 2.56044 9.08 162 167 163
0.285047 2.56044 9.08 161 166 162
0.294986 2.56044 9.08 161 166 162
0.304925 2.56044 9.08 162 167 163
0.314517 2.55762 9.07 160 167 163
0.324445 2.55762 9.07 160 167 163
0.334373 2.55762 9.07 157 164 160
0.344301 2.55762 9.07 157 164 160
0.353839 2.5548 9.06 159 166 162
0.363756 2.5548 9.06 160 167 163
0.373673 2.5548 9.06 157 164 160
0.38359 2.5548 9.06 159 166 162
0.393073 2.55198 9.05 159 166 162
0.402979 2.55198 9.05 159 166 162
0.412885 2.55198 9.05 155 165 160
0.422791 2.55198 9.05 154 164 159
0.432697 2.55198 9.05 154 163 161
0.443093 2.5548 9.06 154 163 161
0.45301 2.5548 9.06 159 165 164
0.463438 2.55762 9.07 160 166 165
0.473366 2.55762 9.07 156 162 161
0.483294 2.55762 9.07 156 162 161
0.493222 2.55762 9.07 157 166 164
0.503705 2.56044 9.08 157 166 164
0.514209 2.56326 9.09 157 166 164
0.524736 2.56608 9.1 154 163 161
0.535284 2.5689 9.11 153 162 160
0.545256 2.5689 9.11 154 163 161
0.555228 2.5689 9.11 155 164 162
0.56582 2.57172 9.12 157 166 164
0.575803 2.57172 9.12 157 163 162
0.585786 2.57172 9.12 156 162 161
0.596422 2.57454 9.13 157 163 162
0.606415 2.57454 9.13 160 166 165
0.616409 2.57454 9.13 160 166 165
0.627089 2.57736 9.14 156 162 161
0.637093 2.57736 9.14 154 160 159
0.647098 2.57736 9.14 157 163 162
0.657822 2.58018 9.15 159 165 164
0.667837 2.58018 9.15 155 161 160
0.677853 2.58018 9.15 155 164 162
0.68862 2.583 9.16 155 164 162
0.698647 2.583 9.16 155 164 162
0.708673 2.583 9.16 154 163 161
0.717915 2.58018 9.15 154 163 161
0.727931 2.58018 9.15 154 163 161
0.737946 2.58018 9.15 164 171 167
0.747962 2.58018 9.15 159 166 162
0.757149 2.57736 9.14 159 166 162
0.767154 2.57736 9.14 157 164 160
0.776308 2.57454 9.13 159 167 160
0.785441 2.57172 9.12 157 165 158
0.795423 2.57172 9.12 160 168 161
0.805406 2.57172 9.12 159 167 160
0.814495 2.5689 9.11 157 165 158
0.824467 2.5689 9.11 155 163 156
0.833522 2.56608 9.1 155 163 156
0.842556 2.56326 9.09 155 163 156
0.851569 2.56044 9.08 155 163 156
0.861507 2.56044 9.08 157 165 158
0.871446 2.56044 9.08 159 167 160
0.880415 2.55762 9.07 157 165 158
0.890343 2.55762 9.07 159 165 158
0.900271 2.55762 9.07 159 165 158
0.910199 2.55762 9.07 162 168 161
0.921141 2.56044 9.08 162 168 161
0.932106 2.56326 9.09 160 167 163
0.942056 2.56326 9.09 155 162 158
0.9541 2.5689 9.11 156 163 159
0.96513 2.57172 9.12 155 162 158
0.975113 2.57172 9.12 153 163 158
0.986176 2.57454 9.13 154 164 159
0.99617 2.57454 9.13 153 163 158
1.00616 2.57454 9.13 153 163 158
1.01616 2.57454 9.13 153 163 158
1.02615 2.57454 9.13 153 163 158
1.03501 2.57172 9.12 154 164 159
1.04499 2.57172 9.12 155 165 160
1.05382 2.5689 9.11 157 167 162
1.06379 2.5689 9.11 154 164 159
1.07258 2.56608 9.1 153 163 158
1.08135 2.56326 9.09 153 163 158
1.0913 2.56326 9.09 153 162 160
1.10004 2.56044 9.08 152 161 159
1.10998 2.56044 9.08 147 156 154
1.11992 2.56044 9.08 151 160 158
1.12986 2.56044 9.08 150 159 157
1.1398 2.56044 9.08 152 161 159
1.14974 2.56044 9.08 153 164 162
1.15968 2.56044 9.08 151 162 160
1.16962 2.56044 9.08 149 160 158
1.18085 2.56326 9.09 151 162 160
1.1908 2.56326 9.09 151 162 160
1.20075 2.56326 9.09 151 162 160
1.2107 2.56326 9.09 150 161 159
1.222 2.56608 9.1 150 161 159
1.23196 2.56608 9.1 149 160 158
1.24328 2.5689 9.11 150 161 159
1.25325 2.5689 9.11 151 162 161
1.26461 2.57172 9.12 153 164 163
1.27599 2.57454 9.13 153 162 161
1.2888 2.58018 9.15 153 162 161
1.30166 2.58582 9.17 154 163 161
1.31456 2.59146 9.19 154 163 161
1.32606 2.59428 9.2 153 162 160
1.33903 2.59992 9.22 153 162 160
1.35059 2.60274 9.23 151 160 158
1.36217 2.60556 9.24 152 161 159
1.37376 2.60838 9.25 148 159 157
1.38389 2.60838 9.25 148 159 157
1.39401 2.60838 9.25 150 159 157
1.40262 2.60556 9.24 150 159 157
1.41121 2.60274 9.23 148 157 155
1.41977 2.59992 9.22 148 157 155
1.42831 2.5971 9.21 150 159 157
1.43527 2.59146 9.19 150 159 157
1.44376 2.58864 9.18 151 160 158
1.45222 2.58582 9.17 150 159 157
1.46066 2.583 9.16 148 157 155
1.46908 2.58018 9.15 148 157 155
1.47748 2.57736 9.14 150 160 155
1.48749 2.57736 9.14 150 160 155
1.49749 2.57736 9.14 147 157 152
1.5075 2.57736 9.14 147 157 152
1.5175 2.57736 9.14 150 160 155
1.52918 2.58018 9.15 150 160 155
1.53919 2.58018 9.15 148 158 153
1.5509 2.583 9.16 147 157 152
1.56093 2.583 9.16 147 157 152
1.57096 2.583 9.16 150 160 155
1.58098 2.583 9.16 151 161 156
1.59101 2.583 9.16 151 161 156
1.60104 2.583 9.16 150 160 155
1.61106 2.583 9.16 148 158 153
1.61932 2.58018 9.15 145 155 150
1.62933 2.58018 9.15 144 154 149
1.63756 2.57736 9.14 146 156 151
1.64756 2.57736 9.14 145 155 150
1.65757 2.57736 9.14 142 152 147
1.66757 2.57736 9.14 142 152 147
1.67574 2.57454 9.13 143 153 148
1.68758 2.57736 9.14 144 154 149
1.69759 2.57736 9.14 157 169 164
1.70946 2.58018 9.15 134 146 141
1.72135 2.583 9.16 144 156 151
1.73138 2.583 9.16 121 133 128
1.74331 2.58582 9.17 104 114 109
1.75526 2.58864 9.18 111 121 116
1.76723 2.59146 9.19 114 121 117
1.77922 2.59428 9.2 107 114 110
1.79124 2.5971 9.21 108 114 107
1.80132 2.5971 9.21 108 114 107
1.81337 2.59992 9.22 108 114 107
1.82544 2.60274 9.23 109 115 108
1.83554 2.60274 9.23 105 113 106
1.84764 2.60556 9.24 98 106 99
1.85776 2.60556 9.24 106 113 109
1.86787 2.60556 9.24 107 114 110
1.88002 2.60838 9.25 103 113 108
1.89014 2.60838 9.25 103 113 108
1.90027 2.60838 9.25 102 112 107
1.91246 2.6112 9.26 102 112 107
1.92259 2.6112 9.26 101 111 106
1.93482 2.61402 9.27 101 111 106
1.94496 2.61402 9.27 101 111 106
1.95722 2.61684 9.28 100 110 105
1.9695 2.61966 9.29 102 109 105
1.9818 2.62248 9.3 104 111 107
1.99412 2.6253 9.31 105 112 108
2.00646 2.62812 9.32 105 112 108
2.01666 2.62812 9.32 102 112 107
2.02904 2.63094 9.33 102 112 107
2.04144 2.63376 9.34 102 112 107
2.05166 2.63376 9.34 102 112 107
2.06189 2.63376 9.34 102 111 109
2.07433 2.63658 9.35 100 109 107
2.08456 2.63658 9.35 100 110 105
2.09928 2.64222 9.37 100 110 105
2.11179 2.64504 9.38 101 111 106
2.12432 2.64786 9.39 102 112 107
2.13459 2.64786 9.39 102 112 107
2.14944 2.6535 9.41 101 111 106
2.16433 2.65914 9.43 101 111 106
2.17696 2.66195 9.44 102 112 107
2.18961 2.66477 9.45 103 113 108
2.20228 2.66759 9.46 103 113 108
2.21731 2.67323 9.48 104 112 105
2.23004 2.67605 9.49 109 117 110
2.24279 2.67887 9.5 107 116 107
2.25556 2.68169 9.51 106 115 106
2.26835 2.68451 9.52 89 101 91
2.27877 2.68451 9.52 116 128 118
2.28679 2.68169 9.51 101 112 104
2.2972 2.68169 9.51 77 88 80
2.30761 2.68169 9.51 73 81 83
2.31558 2.67887 9.5 54 62 64
-0.622698 2.71476 9.59 103 105 99
-0.612839 2.71759 9.6 118 126 119
-0.602958 2.72042 9.61 109 117 110
-0.593055 2.72325 9.62 107 115 108
-0.58192 2.72042 9.61 105 113 106
-0.571995 2.72325 9.62 108 114 107
-0.561465 2.72325 9.62 109 115 108
-0.550362 2.72042 9.61 112 114 108
-0.539843 2.72042 9.61 114 116 110
-0.529324 2.72042 9.61 115 117 111
-0.518805 2.72042 9.61 115 117 111
-0.507228 2.71476 9.59 114 116 110
-0.496213 2.71193 9.58 114 116 110
-0.48522 2.7091 9.57 115 117 111
-0.473752 2.70343 9.55 118 120 114
-0.462814 2.7006 9.54 119 120 117
-0.451423 2.69494 9.52 119 120 117
-0.440076 2.68928 9.5 121 122 119
-0.428772 2.68362 9.48 122 123 120
-0.417513 2.67796 9.46 121 123 117
-0.406728 2.67513 9.45 119 121 115
-0.395964 2.6723 9.44 119 121 115
-0.385223 2.66946 9.43 119 121 115
-0.374105 2.6638 9.41 117 119 113
-0.363032 2.65814 9.39 115 117 111
-0.352378 2.65531 9.38 116 117 114
-0.341381 2.64965 9.36 110 111 108
-0.330428 2.64399 9.34 115 120 116
-0.319862 2.64116 9.33 142 147 143
-0.308985 2.63549 9.31 151 156 152
-0.298153 2.62983 9.29 155 160 156
-0.287674 2.627 9.28 159 166 162
-0.277217 2.62417 9.27 153 160 156
-0.266782 2.62134 9.26 149 156 152
-0.256092 2.61568 9.24 156 163 159
-0.245978 2.61568 9.24 157 164 160
-0.235353 2.61002 9.22 157 164 160
-0.225016 2.60719 9.21 156 162 161
-0.214468 2.60152 9.19 156 162 161
-0.204187 2.59869 9.18 156 162 161
-0.193927 2.59586 9.17 157 163 162
-0.183689 2.59303 9.16 157 163 162
-0.173473 2.5902 9.15 159 165 164
-0.163278 2.58737 9.14 157 163 162
-0.153106 2.58454 9.13 159 165 164
-0.143269 2.58737 9.14 161 168 164
-0.133264 2.58737 9.14 161 168 164
-0.12326 2.58737 9.14 159 166 162
-0.113255 2.58737 9.14 159 166 162
-0.103363 2.5902 9.15 160 167 163
-0.0934499 2.59303 9.16 160 167 163
-0.0834233 2.59303 9.16 159 166 162
-0.0734769 2.59586 9.17 157 164 160
-0.0634394 2.59586 9.17 158 163 159
-0.0533437 2.59303 9.16 158 163 159
-0.0432699 2.5902 9.15 159 165 158
-0.0332543 2.5902 9.15 159 165 158
-0.0232133 2.58737 9.14 159 165 158
-0.0132086 2.58737 9.14 161 167 160
-0.0032005 2.58454 9.13 161 167 160
0.0067932 2.58454 9.13 159 165 158
0.0167869 2.58454 9.13 157 163 156
0.0267806 2.58454 9.13 159 165 158
0.0367743 2.58454 9.13 161 167 160
0.0468192 2.58737 9.14 161 167 160
0.0568239 2.58737 9.14 162 164 158
0.0668285 2.58737 9.14 161 163 157
0.0768332 2.58737 9.14 161 163 157
0.0868378 2.58737 9.14 165 167 161
0.0968425 2.58737 9.14 167 168 165
0.10673 2.58454 9.13 161 162 159
0.116724 2.58454 9.13 159 160 157
0.126718 2.58454 9.13 158 159 156
0.136562 2.58171 9.12 155 159 158
0.146544 2.58171 9.12 155 159 158
0.156355 2.57888 9.11 157 161 160
0.166327 2.57888 9.11 159 163 162
0.175912 2.57322 9.09 159 163 162
0.185862 2.57322 9.09 159 163 162
0.195596 2.57039 9.08 161 166 162
0.205535 2.57039 9.08 164 169 165
0.215237 2.56755 9.07 163 168 164
0.225165 2.56755 9.07 162 167 163
0.234834 2.56472 9.06 162 167 163
0.244751 2.56472 9.06 161 166 162
0.254387 2.56189 9.05 161 165 164
0.264293 2.56189 9.05 166 170 169
0.274199 2.56189 9.05 164 168 167
0.284105 2.56189 9.05 164 168 167
0.294012 2.56189 9.05 163 167 166
0.303918 2.56189 9.05 163 167 166
0.313824 2.56189 9.05 159 165 164
0.32373 2.56189 9.05 159 165 164
0.333267 2.55906 9.04 159 165 164
0.343163 2.55906 9.04 157 163 162
0.353058 2.55906 9.04 160 166 165
0.362953 2.55906 9.04 161 167 166
0.372848 2.55906 9.04 160 166 165
0.38232 2.55623 9.03 160 166 165
0.392204 2.55623 9.03 159 165 164
0.402088 2.55623 9.03 159 165 164
0.411973 2.55623 9.03 157 163 162
0.421857 2.55623 9.03 157 163 162
0.431741 2.55623 9.03 156 162 161
0.441625 2.55623 9.03 159 165 164
0.45151 2.55623 9.03 160 166 165
0.461905 2.55906 9.04 159 165 164
0.4718 2.55906 9.04 157 163 162
0.482228 2.56189 9.05 157 163 162
0.492134 2.56189 9.05 163 169 168
0.502595 2.56472 9.06 160 166 165
0.512512 2.56472 9.06 159 165 164
0.523006 2.56755 9.07 159 165 164
0.532934 2.56755 9.07 160 166 165
0.54346 2.57039 9.08 161 167 166
0.553399 2.57039 9.08 160 166 165
0.563959 2.57322 9.09 160 166 165
0.57454 2.57605 9.1 157 163 162
0.585143 2.57888 9.11 157 163 162
0.595115 2.57888 9.11 157 163 162
0.605087 2.57888 9.11 157 163 162
0.615059 2.57888 9.11 159 165 164
0.625717 2.58171 9.12 156 162 161
0.635002 2.57888 9.11 156 160 159
0.645682 2.58171 9.12 161 165 164
0.655665 2.58171 9.12 159 163 162
0.665648 2.58171 9.12 158 162 161
0.676371 2.58454 9.13 159 165 164
0.686365 2.58454 9.13 159 165 164
0.696359 2.58454 9.13 156 162 161
0.706352 2.58454 9.13 156 162 161
0.716346 2.58454 9.13 155 162 158
0.72634 2.58454 9.13 157 164 160
0.736333 2.58454 9.13 157 164 160
0.74551 2.58171 9.12 157 164 160
0.755492 2.58171 9.12 158 163 159
0.764636 2.57888 9.11 158 163 159
0.774608 2.57888 9.11 159 164 160
0.783718 2.57605 9.1 159 164 160
0.792807 2.57322 9.09 161 166 162
0.802757 2.57322 9.09 161 166 162
0.811813 2.57039 9.08 159 164 160
0.821752 2.57039 9.08 158 163 159
0.831691 2.57039 9.08 158 163 159
0.840703 2.56755 9.07 158 163 159
0.850631 2.56755 9.07 158 163 159
0.85961 2.56472 9.06 159 164 160
0.869527 2.56472 9.06 161 166 162
0.878473 2.56189 9.05 159 164 160
0.888379 2.56189 9.05 158 163 159
0.898286 2.56189 9.05 158 163 159
0.908192 2.56189 9.05 157 164 160
0.918098 2.56189 9.05 157 164 160
0.929029 2.56472 9.06 157 164 160
0.939983 2.56755 9.07 156 163 159
0.950958 2.57039 9.08 156 163 159
0.961955 2.57322 9.09 156 163 159
0.972975 2.57605 9.1 153 162 160
0.984016 2.57888 9.11 153 162 160
0.993987 2.57888 9.11 153 163 158
1.00506 2.58171 9.12 153 163 158
1.01393 2.57888 9.11 153 163 158
1.0239 2.57888 9.11 154 164 159
1.03387 2.57888 9.11 154 164 159
1.0427 2.57605 9.1 153 163 158
1.0515 2.57322 9.09 154 164 159
1.06145 2.57322 9.09 155 165 160
1.07023 2.57039 9.08 155 165 160
1.07898 2.56755 9.07 153 163 158
1.0889 2.56755 9.07 154 163 161
1.09762 2.56472 9.06 154 163 161
1.10754 2.56472 9.06 150 159 157
1.11745 2.56472 9.06 152 161 159
1.12737 2.56472 9.06 152 161 159
1.13729 2.56472 9.06 153 162 160
1.14721 2.56472 9.06 153 162 160
1.15712 2.56472 9.06 153 162 160
1.16833 2.56755 9.07 152 161 159
1.17826 2.56755 9.07 153 162 160
1.18818 2.56755 9.07 154 163 161
1.19811 2.56755 9.07 152 161 159
1.20804 2.56755 9.07 152 161 159
1.21931 2.57039 9.08 152 161 159
1.22925 2.57039 9.08 153 162 160
1.23919 2.57039 9.08 153 162 160
1.24913 2.57039 9.08 154 163 161
1.26045 2.57322 9.09 155 164 162
1.2732 2.57888 9.11 152 161 159
1.28458 2.58171 9.12 153 162 160
1.2974 2.58737 9.14 154 163 161
1.31027 2.59303 9.16 154 163 161
1.32173 2.59586 9.17 155 164 162
1.33468 2.60152 9.19 154 163 161
1.34473 2.60152 9.19 153 162 160
1.35627 2.60436 9.2 152 161 159
1.36782 2.60719 9.21 151 160 158
1.37791 2.60719 9.21 150 159 157
1.38799 2.60719 9.21 148 157 155
1.39807 2.60719 9.21 150 159 157
1.40662 2.60436 9.2 151 160 158
1.41361 2.59869 9.18 151 160 158
1.42366 2.59869 9.18 151 160 158
1.43058 2.59303 9.16 151 160 158
1.43904 2.5902 9.15 150 159 157
1.44905 2.5902 9.15 152 161 159
1.45588 2.58454 9.13 152 163 161
1.46587 2.58454 9.13 150 161 159
1.47425 2.58171 9.12 149 161 156
1.48423 2.58171 9.12 145 157 152
1.49422 2.58171 9.12 146 156 151
1.50585 2.58454 9.13 147 157 152
1.51584 2.58454 9.13 150 160 155
1.52584 2.58454 9.13 148 158 153
1.53751 2.58737 9.14 147 157 152
1.54921 2.5902 9.15 147 157 152
1.55922 2.5902 9.15 148 158 153
1.56924 2.5902 9.15 150 160 155
1.57926 2.5902 9.15 148 158 153
1.58927 2.5902 9.15 148 158 153
1.59929 2.5902 9.15 147 157 152
1.60754 2.58737 9.14 147 157 152
1.61755 2.58737 9.14 146 156 151
1.62755 2.58737 9.14 146 156 151
1.63577 2.58454 9.13 146 156 151
1.64576 2.58454 9.13 143 153 148
1.65575 2.58454 9.13 140 150 145
1.66392 2.58171 9.12 146 156 151
1.67574 2.58454 9.13 145 156 154
1.68389 2.58171 9.12 144 155 153
1.69573 2.58454 9.13 134 145 143
1.70759 2.58737 9.14 115 126 124
1.7176 2.58737 9.14 122 133 131
1.72949 2.5902 9.15 102 113 111
1.74141 2.59303 9.16 107 118 116
1.75335 2.59586 9.17 109 120 118
1.76531 2.59869 9.18 107 116 114
1.77729 2.60152 9.19 104 113 111
1.78929 2.60436 9.2 106 112 111
1.80132 2.60719 9.21 105 111 110
1.8114 2.60719 9.21 107 112 108
1.82148 2.60719 9.21 109 114 110
1.83355 2.61002 9.22 105 112 108
1.84564 2.61285 9.23 100 107 103
1.85575 2.61285 9.23 102 112 107
1.86787 2.61568 9.24 109 119 114
1.87798 2.61568 9.24 109 118 116
1.8881 2.61568 9.24 105 114 112
1.90027 2.61851 9.25 103 112 110
1.91246 2.62134 9.26 102 111 109
1.92259 2.62134 9.26 102 112 107
1.93273 2.62134 9.26 101 111 106
1.94496 2.62417 9.27 100 110 105
1.95722 2.627 9.28 98 108 103
1.9695 2.62983 9.29 102 109 105
1.98393 2.63549 9.31 104 111 107
1.99626 2.63833 9.32 105 112 108
2.00646 2.63833 9.32 104 111 107
2.01883 2.64116 9.33 102 112 107
2.03122 2.64399 9.34 102 112 107
2.04144 2.64399 9.34 103 113 108
2.05386 2.64682 9.35 102 112 107
2.06409 2.64682 9.35 102 111 109
2.07433 2.64682 9.35 102 111 109
2.08679 2.64965 9.36 101 111 106
2.09928 2.65248 9.37 98 108 103
2.11179 2.65531 9.38 103 110 106
2.12432 2.65814 9.39 105 112 108
2.13687 2.66097 9.4 103 113 108
2.14944 2.6638 9.41 102 112 107
2.16433 2.66946 9.43 101 111 106
2.17696 2.6723 9.44 101 111 106
2.18961 2.67513 9.45 101 111 106
2.20228 2.67796 9.46 102 112 107
2.21498 2.68079 9.47 102 113 105
2.22769 2.68362 9.48 112 123 115
2.24043 2.68645 9.49 110 122 112
2.25319 2.68928 9.5 101 113 103
2.26359 2.68928 9.5 89 100 92
2.27399 2.68928 9.5 87 98 90
2.28198 2.68645 9.49 58 68 63
2.29237 2.68645 9.49 46 56 51
-0.611562 2.72242 9.58 88 94 87
-0.601703 2.72526 9.59 119 125 118
-0.591206 2.72526 9.59 111 117 110
-0.581314 2.7281 9.6 106 112 105
-0.570211 2.72526 9.59 105 111 104
-0.559714 2.72526 9.59 106 112 105
-0.549217 2.72526 9.59 109 111 105
-0.53872 2.72526 9.59 111 113 107
-0.528223 2.72526 9.59 115 117 111
-0.517725 2.72526 9.59 115 117 111
-0.506699 2.72242 9.58 111 113 107
-0.495695 2.71958 9.57 111 113 107
-0.484713 2.71674 9.56 114 116 110
-0.473256 2.71105 9.54 118 120 114
-0.462328 2.70821 9.53 119 121 115
-0.450949 2.70253 9.51 121 123 117
-0.440076 2.69969 9.5 121 123 117
-0.428772 2.694 9.48 121 123 117
-0.417513 2.68832 9.46 121 123 117
-0.406728 2.68548 9.45 118 120 114
-0.395964 2.68264 9.44 118 120 114
-0.384814 2.67695 9.42 118 120 114
-0.374105 2.67411 9.41 117 119 113
-0.363032 2.66843 9.39 117 119 113
-0.352378 2.66558 9.38 118 119 116
-0.341381 2.6599 9.36 119 120 117
-0.330428 2.65422 9.34 108 109 106
-0.319862 2.65138 9.33 109 110 107
-0.308985 2.64569 9.31 123 124 121
-0.298153 2.64001 9.29 133 134 131
-0.287674 2.63717 9.28 147 151 150
-0.276918 2.63148 9.26 151 155 154
-0.266494 2.62864 9.25 154 160 159
-0.256092 2.6258 9.24 152 158 157
-0.245711 2.62296 9.23 161 167 166
-0.235098 2.61727 9.21 159 165 164
-0.224772 2.61443 9.2 157 163 162
-0.214468 2.61159 9.19 156 162 161
-0.204187 2.60875 9.18 157 163 162
-0.193927 2.60591 9.17 159 165 164
-0.183488 2.60022 9.15 159 165 164
-0.173283 2.59738 9.14 159 165 164
-0.163278 2.59738 9.14 157 163 162
-0.153106 2.59454 9.13 159 165 164
-0.143112 2.59454 9.13 160 166 165
-0.133119 2.59454 9.13 160 166 165
-0.123125 2.59454 9.13 162 169 165
-0.113131 2.59454 9.13 161 168 164
-0.10325 2.59738 9.14 160 167 163
-0.0932458 2.59738 9.14 159 166 162
-0.0832412 2.59738 9.14 160 167 163
-0.0732365 2.59738 9.14 159 166 162
-0.0632319 2.59738 9.14 159 164 160
-0.0532272 2.59738 9.14 159 164 160
-0.043128 2.5917 9.12 158 163 159
-0.0331453 2.5917 9.12 159 164 160
-0.0231625 2.5917 9.12 158 164 157
-0.0131797 2.5917 9.12 161 167 160
-0.00319349 2.58886 9.11 161 167 160
0.00677832 2.58886 9.11 161 167 160
0.0167501 2.58886 9.11 158 164 157
0.0267513 2.5917 9.12 159 165 158
0.036734 2.5917 9.12 162 168 161
0.0467168 2.5917 9.12 161 167 160
0.0567617 2.59454 9.13 162 164 158
0.0667554 2.59454 9.13 161 163 157
0.0767491 2.59454 9.13 159 161 155
0.0867428 2.59454 9.13 164 166 160
0.0967365 2.59454 9.13 167 168 165
0.106613 2.5917 9.12 161 162 159
0.116468 2.58886 9.11 160 161 158
0.126301 2.58602 9.1 157 158 155
0.136112 2.58317 9.09 162 166 165
0.145902 2.58033 9.08 161 165 164
0.155841 2.58033 9.08 159 163 162
0.165414 2.57465 9.06 161 165 164
0.175331 2.57465 9.06 161 166 162
0.185044 2.57181 9.05 157 162 158
0.194735 2.56896 9.04 155 160 156
0.20463 2.56896 9.04 168 173 169
0.214525 2.56896 9.04 165 170 166
0.224172 2.56612 9.03 161 166 162
0.234056 2.56612 9.03 162 167 163
0.243941 2.56612 9.03 161 166 162
0.253544 2.56328 9.02 157 161 160
0.263417 2.56328 9.02 156 160 159
0.27329 2.56328 9.02 161 165 164
0.283164 2.56328 9.02 164 168 167
0.293037 2.56328 9.02 162 166 165
0.30291 2.56328 9.02 161 165 164
0.31313 2.56612 9.03 159 163 162
0.323014 2.56612 9.03 159 163 162
0.332899 2.56612 9.03 157 163 162
0.342783 2.56612 9.03 156 162 161
0.352277 2.56328 9.02 157 163 162
0.36215 2.56328 9.02 160 166 165
0.372023 2.56328 9.02 159 165 164
0.381897 2.56328 9.02 160 166 165
0.391336 2.56044 9.01 157 163 162
0.401198 2.56044 9.01 156 162 161
0.41106 2.56044 9.01 156 162 161
0.420923 2.56044 9.01 156 162 161
0.430785 2.56044 9.01 157 163 162
0.440647 2.56044 9.01 159 165 164
0.45051 2.56044 9.01 162 166 165
0.460883 2.56328 9.02 159 163 162
0.470756 2.56328 9.02 161 165 164
0.48063 2.56328 9.02 161 165 164
0.491047 2.56612 9.03 160 166 165
0.500931 2.56612 9.03 160 166 165
0.511381 2.56896 9.04 159 165 164
0.521853 2.57181 9.05 156 162 161
0.531759 2.57181 9.05 157 163 162
0.542263 2.57465 9.06 160 166 165
0.55279 2.57749 9.07 159 165 164
0.562718 2.57749 9.07 159 165 164
0.573277 2.58033 9.08 158 162 161
0.583216 2.58033 9.08 159 163 162
0.593155 2.58033 9.08 159 163 162
0.603758 2.58317 9.09 159 163 162
0.613708 2.58317 9.09 159 163 162
0.622972 2.58033 9.08 157 161 160
0.632911 2.58033 9.08 157 161 160
0.643558 2.58317 9.09 157 161 160
0.653508 2.58317 9.09 156 160 159
0.663458 2.58317 9.09 157 161 160
0.674149 2.58602 9.1 161 165 164
0.684861 2.58886 9.11 161 165 164
0.694833 2.58886 9.11 157 163 162
0.704805 2.58886 9.11 157 163 162
0.714777 2.58886 9.11 157 163 162
0.724749 2.58886 9.11 156 162 161
0.73472 2.58886 9.11 160 167 163
0.744692 2.58886 9.11 157 164 160
0.754664 2.58886 9.11 155 162 158
0.763796 2.58602 9.1 154 161 157
0.772907 2.58317 9.09 158 163 159
0.781996 2.58033 9.08 158 163 159
0.791935 2.58033 9.08 158 163 159
0.800991 2.57749 9.07 162 167 163
0.810919 2.57749 9.07 162 169 165
0.819942 2.57465 9.06 160 167 163
0.829859 2.57465 9.06 157 164 160
0.838849 2.57181 9.05 157 164 160
0.848755 2.57181 9.05 157 164 160
0.857712 2.56896 9.04 159 166 162
0.867607 2.56896 9.04 161 166 162
0.877503 2.56896 9.04 159 164 160
0.886416 2.56612 9.03 157 162 158
0.895308 2.56328 9.02 158 163 159
0.906185 2.56612 9.03 158 163 159
0.916069 2.56612 9.03 158 163 159
0.926979 2.56896 9.04 156 163 159
0.93791 2.57181 9.05 156 163 159
0.949911 2.57749 9.07 156 163 159
0.959839 2.57749 9.07 156 163 159
0.970836 2.58033 9.08 155 164 162
0.981855 2.58317 9.09 157 166 164
0.991805 2.58317 9.09 155 164 162
1.00286 2.58602 9.1 153 162 160
1.01171 2.58317 9.09 153 162 160
1.02165 2.58317 9.09 154 163 161
1.0316 2.58317 9.09 153 162 160
1.04041 2.58033 9.08 151 160 158
1.04919 2.57749 9.07 151 160 158
1.05912 2.57749 9.07 153 162 160
1.06787 2.57465 9.06 153 162 160
1.0766 2.57181 9.05 153 162 160
1.0865 2.57181 9.05 154 163 161
1.09641 2.57181 9.05 157 166 164
1.10509 2.56896 9.04 158 167 165
1.11499 2.56896 9.04 158 167 165
1.12488 2.56896 9.04 157 166 164
1.13478 2.56896 9.04 155 164 162
1.14467 2.56896 9.04 151 161 156
1.15585 2.57181 9.05 151 161 156
1.16575 2.57181 9.05 152 162 157
1.17436 2.56896 9.04 152 162 157
1.18556 2.57181 9.05 152 162 157
1.19547 2.57181 9.05 151 161 156
1.20538 2.57181 9.05 151 161 156
1.21662 2.57465 9.06 153 163 158
1.22519 2.57181 9.05 154 163 161
1.23646 2.57465 9.06 153 162 160
1.24638 2.57465 9.06 153 162 160
1.25629 2.57465 9.06 154 163 161
1.26761 2.57749 9.07 153 162 160
1.27894 2.58033 9.08 154 163 161
1.29172 2.58602 9.1 155 164 162
1.30454 2.5917 9.12 154 163 161
1.31741 2.59738 9.14 153 162 160
1.32887 2.60022 9.15 154 163 161
1.33888 2.60022 9.15 152 161 159
1.35037 2.60307 9.16 151 160 158
1.36188 2.60591 9.17 151 160 158
1.37192 2.60591 9.17 150 159 157
1.38196 2.60591 9.17 150 159 157
1.392 2.60591 9.17 152 161 159
1.4005 2.60307 9.16 152 161 159
1.40899 2.60022 9.15 153 162 160
1.41746 2.59738 9.14 152 161 159
1.4259 2.59454 9.13 151 160 158
1.43589 2.59454 9.13 150 159 157
1.4443 2.5917 9.12 148 157 155
1.45269 2.58886 9.11 150 161 159
1.46266 2.58886 9.11 150 161 159
1.47102 2.58602 9.1 147 161 156
1.48261 2.58886 9.11 143 157 152
1.49258 2.58886 9.11 144 156 151
1.50255 2.58886 9.11 146 158 153
1.51252 2.58886 9.11 148 160 155
1.52416 2.5917 9.12 148 160 155
1.53583 2.59454 9.13 148 160 155
1.54582 2.59454 9.13 146 158 153
1.55582 2.59454 9.13 148 160 155
1.56581 2.59454 9.13 146 158 153
1.5758 2.59454 9.13 144 156 151
1.58753 2.59738 9.14 145 157 152
1.59579 2.59454 9.13 145 157 152
1.60579 2.59454 9.13 145 157 152
1.61578 2.59454 9.13 148 160 155
1.62577 2.59454 9.13 149 161 156
1.63397 2.5917 9.12 153 163 158
1.64396 2.5917 9.12 152 162 157
1.65394 2.5917 9.12 148 157 155
1.6621 2.58886 9.11 142 151 149
1.67207 2.58886 9.11 131 142 140
1.68204 2.58886 9.11 121 132 130
1.69387 2.5917 9.12 110 123 121
1.70572 2.59454 9.13 105 118 116
1.71572 2.59454 9.13 99 112 111
1.7276 2.59738 9.14 100 113 112
1.73951 2.60022 9.15 106 117 116
1.75143 2.60307 9.16 106 117 116
1.76338 2.60591 9.17 107 116 114
1.77342 2.60591 9.17 105 114 112
1.78735 2.61159 9.19 105 114 112
1.79741 2.61159 9.19 103 112 110
1.80943 2.61443 9.2 103 112 110
1.8195 2.61443 9.2 104 113 111
1.83156 2.61727 9.21 102 111 109
1.84364 2.62012 9.22 98 107 105
1.85575 2.62296 9.23 100 109 107
1.86585 2.62296 9.23 103 112 110
1.87798 2.6258 9.24 105 114 112
1.8881 2.6258 9.24 104 113 111
1.89821 2.6258 9.24 104 113 111
1.91039 2.62864 9.25 104 113 111
1.92052 2.62864 9.25 104 114 109
1.93273 2.63148 9.26 102 112 107
1.94496 2.63433 9.27 100 110 105
1.95722 2.63717 9.28 98 108 103
1.9695 2.64001 9.29 103 110 106
1.98393 2.64569 9.31 105 112 108
1.99626 2.64853 9.32 104 111 107
2.00862 2.65138 9.33 104 111 107
2.01883 2.65138 9.33 101 111 106
2.03122 2.65422 9.34 101 111 106
2.04362 2.65706 9.35 103 113 108
2.05386 2.65706 9.35 103 113 108
2.0663 2.6599 9.36 103 112 110
2.07655 2.6599 9.36 104 113 111
2.08902 2.66274 9.37 103 113 108
2.09928 2.66274 9.37 98 108 103
2.11179 2.66558 9.38 100 110 105
2.12432 2.66843 9.39 101 111 106
2.13687 2.67127 9.4 102 113 105
2.14944 2.67411 9.41 101 112 104
2.16204 2.67695 9.42 100 110 105
2.17465 2.67979 9.43 98 108 103
2.18961 2.68548 9.45 99 106 102
2.19995 2.68548 9.45 106 113 109
2.21264 2.68832 9.46 105 116 108
2.22299 2.68832 9.46 101 112 104
2.23571 2.69116 9.47 101 112 104
2.24844 2.694 9.48 60 71 63
2.25882 2.694 9.48 54 65 57
2.2692 2.694 9.48 51 62 54
-0.589973 2.73006 9.57 108 114 107
-0.579498 2.73006 9.57 116 122 115
-0.569022 2.73006 9.57 111 117 110
-0.559131 2.73291 9.58 105 111 104
-0.548644 2.73291 9.58 108 110 104
-0.537596 2.73006 9.57 110 112 106
-0.527121 2.73006 9.57 114 116 110
-0.516646 2.73006 9.57 116 118 112
-0.50617 2.73006 9.57 115 117 111
-0.494659 2.72436 9.55 112 114 108
-0.483699 2.7215 9.54 114 116 110
-0.47276 2.71865 9.53 115 117 111
-0.461358 2.71294 9.51 119 121 115
-0.450474 2.71009 9.5 121 123 117
-0.439612 2.70724 9.49 119 121 115
-0.42832 2.70153 9.47 119 121 115
-0.417072 2.69583 9.45 118 120 114
-0.406297 2.69298 9.44 117 119 113
-0.395545 2.69012 9.43 117 119 113
-0.384814 2.68727 9.42 117 119 113
-0.374105 2.68442 9.41 118 120 114
-0.363032 2.67871 9.39 117 119 113
-0.352378 2.67586 9.38 118 120 114
-0.341381 2.67015 9.36 121 123 117
-0.330428 2.66445 9.34 118 119 116
-0.319862 2.6616 9.33 116 117 114
-0.308985 2.65589 9.31 130 129 126
-0.298153 2.65018 9.29 120 119 116
-0.287674 2.64733 9.28 125 125 126
-0.276918 2.64163 9.26 151 151 152
-0.266494 2.63877 9.25 162 166 165
-0.256092 2.63592 9.24 157 161 160
-0.245445 2.63022 9.22 163 169 168
-0.234842 2.62451 9.2 162 168 167
-0.224528 2.62166 9.19 157 163 162
-0.214235 2.6188 9.18 157 163 162
-0.203964 2.61595 9.17 157 163 162
-0.193715 2.6131 9.16 157 163 162
-0.183488 2.61025 9.15 160 166 165
-0.173283 2.60739 9.14 157 163 162
-0.163278 2.60739 9.14 156 162 161
-0.153106 2.60454 9.13 156 162 161
-0.143112 2.60454 9.13 159 165 164
-0.132973 2.60169 9.12 160 166 165
-0.12299 2.60169 9.12 160 167 163
-0.113007 2.60169 9.12 163 170 166
-0.103025 2.60169 9.12 162 169 165
-0.0930418 2.60169 9.12 160 167 163
-0.083059 2.60169 9.12 160 167 163
-0.0730763 2.60169 9.12 161 168 164
-0.0630243 2.59884 9.11 159 166 162
-0.0529943 2.59598 9.1 159 166 162
-0.0429861 2.59313 9.09 161 168 164
-0.0330362 2.59313 9.09 160 167 163
-0.0230863 2.59313 9.09 159 166 162
-0.0131219 2.59028 9.08 157 164 160
-0.00318648 2.59313 9.09 160 167 163
0.006756 2.59028 9.08 159 166 162
0.0167134 2.59313 9.09 159 164 160
0.0266633 2.59313 9.09 161 166 162
0.0366535 2.59598 9.1 162 167 163
0.0466656 2.59884 9.11 161 166 162
0.0566374 2.59884 9.11 159 164 160
0.0666823 2.60169 9.12 159 164 160
0.076581 2.59884 9.11 160 161 158
0.0865528 2.59884 9.11 164 165 162
0.0964186 2.59598 9.1 167 168 165
0.106263 2.59313 9.09 164 165 162
0.116085 2.59028 9.08 162 163 160
0.125885 2.58742 9.07 161 162 159
0.135513 2.58172 9.05 164 168 167
0.145259 2.57887 9.04 161 165 164
0.155154 2.57887 9.04 161 165 164
0.164867 2.57601 9.03 161 165 164
0.174557 2.57316 9.02 162 167 163
0.184226 2.57031 9.01 159 164 160
0.193873 2.56746 9 154 159 155
0.203725 2.56746 9 158 163 159
0.213576 2.56746 9 163 168 164
0.223427 2.56746 9 162 167 163
0.23302 2.5646 8.99 162 167 163
0.24286 2.5646 8.99 157 162 158
0.2527 2.5646 8.99 157 161 160
0.262541 2.5646 8.99 161 165 164
0.272381 2.5646 8.99 159 163 162
0.282222 2.5646 8.99 164 168 167
0.292387 2.56746 9 162 166 165
0.302239 2.56746 9 162 166 165
0.31209 2.56746 9 161 165 164
0.321941 2.56746 9 159 163 162
0.331793 2.56746 9 159 165 164
0.341644 2.56746 9 160 166 165
0.351496 2.56746 9 160 166 165
0.361347 2.56746 9 160 166 165
0.371198 2.56746 9 157 163 162
0.380626 2.5646 8.99 160 166 165
0.390467 2.5646 8.99 160 166 165
0.400307 2.5646 8.99 156 162 161
0.409692 2.56175 8.98 155 161 160
0.419521 2.56175 8.98 157 163 162
0.429351 2.56175 8.98 159 164 160
0.43918 2.56175 8.98 159 164 160
0.44901 2.56175 8.98 161 166 162
0.45935 2.5646 8.99 161 166 162
0.46919 2.5646 8.99 161 166 162
0.479031 2.5646 8.99 161 166 162
0.489415 2.56746 9 162 167 163
0.499267 2.56746 9 163 168 164
0.510249 2.57316 9.02 162 167 163
0.520123 2.57316 9.02 161 166 162
0.530584 2.57601 9.03 159 164 160
0.541066 2.57887 9.04 161 166 162
0.551571 2.58172 9.05 159 164 160
0.561477 2.58172 9.05 161 166 162
0.572015 2.58457 9.06 161 166 162
0.582574 2.58742 9.07 161 166 162
0.592502 2.58742 9.07 162 167 163
0.60243 2.58742 9.07 162 167 163
0.612358 2.58742 9.07 164 165 162
0.6216 2.58457 9.06 162 163 160
0.631517 2.58457 9.06 162 163 160
0.641434 2.58457 9.06 162 163 160
0.651351 2.58457 9.06 159 163 162
0.661268 2.58457 9.06 159 163 162
0.671926 2.58742 9.07 158 162 161
0.682606 2.59028 9.08 159 163 162
0.692545 2.59028 9.08 162 166 165
0.702484 2.59028 9.08 162 166 165
0.713208 2.59313 9.09 157 163 162
0.723157 2.59313 9.09 159 165 164
0.733107 2.59313 9.09 161 167 166
0.743057 2.59313 9.09 160 166 165
0.753007 2.59313 9.09 156 163 159
0.762118 2.59028 9.08 155 162 158
0.772057 2.59028 9.08 156 163 159
0.781134 2.58742 9.07 156 163 159
0.791062 2.58742 9.07 156 163 159
0.800107 2.58457 9.06 155 162 158
0.80913 2.58172 9.05 155 162 158
0.818132 2.57887 9.04 157 164 160
0.828027 2.57887 9.04 157 164 160
0.836995 2.57601 9.03 159 166 162
0.846879 2.57601 9.03 162 167 163
0.855815 2.57316 9.02 161 166 162
0.865688 2.57316 9.02 161 166 162
0.874591 2.57031 9.01 161 166 162
0.885435 2.57316 9.02 158 163 159
0.895308 2.57316 9.02 159 164 160
0.905181 2.57316 9.02 157 164 160
0.915055 2.57316 9.02 157 164 160
0.925953 2.57601 9.03 157 164 160
0.936874 2.57887 9.04 156 163 159
0.947816 2.58172 9.05 156 163 159
0.957722 2.58172 9.05 156 163 159
0.968698 2.58457 9.06 155 164 162
0.979695 2.58742 9.07 155 164 162
0.989623 2.58742 9.07 154 163 161
1.00065 2.59028 9.08 153 162 160
1.00948 2.58742 9.07 153 162 160
1.01941 2.58742 9.07 153 162 160
1.02934 2.58742 9.07 153 162 160
1.03812 2.58457 9.06 153 162 160
1.04803 2.58457 9.06 152 161 159
1.05678 2.58172 9.05 153 162 160
1.06551 2.57887 9.04 153 162 160
1.07422 2.57601 9.03 153 162 160
1.0829 2.57316 9.02 153 162 160
1.09277 2.57316 9.02 155 164 162
1.10142 2.57031 9.01 157 166 164
1.11252 2.57316 9.02 157 166 164
1.12239 2.57316 9.02 155 164 162
1.13227 2.57316 9.02 154 163 161
1.14214 2.57316 9.02 152 162 157
1.15329 2.57601 9.03 151 161 156
1.16317 2.57601 9.03 151 161 156
1.17306 2.57601 9.03 151 161 156
1.18294 2.57601 9.03 151 161 156
1.19283 2.57601 9.03 148 158 153
1.20271 2.57601 9.03 150 160 155
1.2126 2.57601 9.03 152 162 157
1.22248 2.57601 9.03 153 163 158
1.23236 2.57601 9.03 153 163 158
1.24362 2.57887 9.04 153 163 158
1.25352 2.57887 9.04 153 163 158
1.26341 2.57887 9.04 154 164 159
1.27472 2.58172 9.05 153 163 158
1.28604 2.58457 9.06 153 163 158
1.29739 2.58742 9.07 153 163 158
1.3102 2.59313 9.09 151 161 156
1.3216 2.59598 9.1 151 161 156
1.33303 2.59884 9.11 150 159 157
1.34447 2.60169 9.12 150 159 157
1.35446 2.60169 9.12 151 160 158
1.36594 2.60454 9.13 153 162 160
1.37744 2.60739 9.14 153 162 160
1.38592 2.60454 9.13 153 162 160
1.39439 2.60169 9.12 152 161 159
1.40437 2.60169 9.12 150 159 157
1.4128 2.59884 9.11 148 157 155
1.42121 2.59598 9.1 151 160 158
1.43117 2.59598 9.1 152 161 159
1.43955 2.59313 9.09 152 161 159
1.44791 2.59028 9.08 149 160 158
1.45785 2.59028 9.08 149 160 158
1.46778 2.59028 9.08 146 157 155
1.47935 2.59313 9.09 145 156 154
1.4893 2.59313 9.09 144 155 153
1.49925 2.59313 9.09 145 156 154
1.5092 2.59313 9.09 145 156 154
1.52082 2.59598 9.1 146 157 155
1.53247 2.59884 9.11 147 156 154
1.54413 2.60169 9.12 147 156 154
1.55411 2.60169 9.12 147 156 154
1.5641 2.60169 9.12 146 155 153
1.57408 2.60169 9.12 145 154 152
1.58406 2.60169 9.12 143 152 150
1.59404 2.60169 9.12 147 156 154
1.60403 2.60169 9.12 154 163 161
1.61401 2.60169 9.12 162 171 169
1.62399 2.60169 9.12 147 156 154
1.63218 2.59884 9.11 131 141 143
1.64216 2.59884 9.11 119 129 131
1.65031 2.59598 9.1 110 118 120
1.66027 2.59598 9.1 101 109 111
1.67024 2.59598 9.1 101 112 111
1.6802 2.59598 9.1 101 112 111
1.69201 2.59884 9.11 100 113 112
1.70385 2.60169 9.12 98 111 110
1.71384 2.60169 9.12 97 110 109
1.72571 2.60454 9.13 101 114 113
1.7357 2.60454 9.13 103 116 115
1.74952 2.61025 9.15 103 116 115
1.75954 2.61025 9.15 102 113 112
1.77342 2.61595 9.17 102 113 112
1.78346 2.61595 9.17 104 113 111
1.79741 2.62166 9.19 104 113 111
1.80747 2.62166 9.19 104 113 111
1.8195 2.62451 9.2 103 112 110
1.82957 2.62451 9.2 101 110 108
1.84164 2.62736 9.21 100 109 107
1.85374 2.63022 9.22 100 109 107
1.86585 2.63307 9.23 102 111 109
1.87595 2.63307 9.23 102 111 109
1.8881 2.63592 9.24 102 111 109
1.89821 2.63592 9.24 103 112 110
1.91039 2.63877 9.25 104 113 111
1.92052 2.63877 9.25 104 113 111
1.93273 2.64163 9.26 103 112 110
1.94496 2.64448 9.27 103 110 106
1.95722 2.64733 9.28 102 109 105
1.9695 2.65018 9.29 105 112 108
1.98393 2.65589 9.31 105 112 108
1.99626 2.65874 9.32 103 110 106
2.00862 2.6616 9.33 102 109 105
2.02099 2.66445 9.34 100 107 103
2.03122 2.66445 9.34 100 107 103
2.04362 2.6673 9.35 101 110 108
2.05606 2.67015 9.36 104 113 111
2.0663 2.67015 9.36 104 113 111
2.07877 2.67301 9.37 104 113 111
2.08902 2.67301 9.37 103 113 108
2.10152 2.67586 9.38 101 111 106
2.11404 2.67871 9.39 100 110 105
2.12432 2.67871 9.39 100 110 105
2.13687 2.68157 9.4 101 112 104
2.14944 2.68442 9.41 107 118 110
2.16204 2.68727 9.42 107 115 108
2.17465 2.69012 9.43 96 104 97
2.18729 2.69298 9.44 91 97 90
2.19763 2.69298 9.44 97 103 96
2.2103 2.69583 9.45 93 99 92
2.22064 2.69583 9.45 91 97 90
2.23099 2.69583 9.45 55 63 56
-0.577681 2.73195 9.54 96 98 92
-0.567833 2.73482 9.55 121 123 117
-0.55738 2.73482 9.55 111 113 107
-0.546926 2.73482 9.55 109 111 105
-0.536473 2.73482 9.55 111 113 107
-0.526019 2.73482 9.55 112 114 108
-0.515566 2.73482 9.55 114 116 110
-0.504584 2.73195 9.54 113 119 112
-0.494141 2.73195 9.54 111 117 110
-0.483192 2.72909 9.53 109 115 108
-0.471768 2.72336 9.51 109 115 108
-0.460873 2.7205 9.5 109 115 108
-0.45 2.71763 9.49 114 120 113
-0.438686 2.71191 9.47 115 121 114
-0.427868 2.70904 9.46 115 121 114
-0.41663 2.70332 9.44 115 121 114
-0.406297 2.70332 9.44 114 120 113
-0.395545 2.70045 9.43 117 119 113
-0.384406 2.69473 9.41 117 119 113
-0.373708 2.69186 9.4 117 119 113
-0.363032 2.689 9.39 118 120 114
-0.352378 2.68613 9.38 119 121 115
-0.341746 2.68327 9.37 121 123 117
-0.330782 2.67754 9.35 121 122 119
-0.319862 2.67182 9.33 119 120 117
-0.309317 2.66895 9.32 122 123 120
-0.298153 2.66036 9.29 122 123 120
-0.287674 2.6575 9.28 117 115 116
-0.276918 2.65177 9.26 135 133 134
-0.266494 2.64891 9.25 144 142 142
-0.255815 2.64318 9.23 154 152 152
-0.245179 2.63745 9.21 157 157 157
-0.234842 2.63459 9.2 161 161 161
-0.224284 2.62886 9.18 157 163 162
-0.214002 2.626 9.17 154 160 159
-0.203742 2.62313 9.16 154 160 159
-0.193504 2.62027 9.15 156 162 161
-0.183288 2.61741 9.14 159 165 164
-0.173093 2.61454 9.13 156 162 161
-0.1631 2.61454 9.13 156 162 161
-0.152938 2.61168 9.12 157 163 162
-0.142956 2.61168 9.12 160 166 165
-0.132973 2.61168 9.12 159 165 164
-0.122855 2.60881 9.11 157 163 162
-0.112883 2.60881 9.11 161 167 166
-0.102799 2.60595 9.1 161 167 166
-0.0928377 2.60595 9.1 160 166 165
-0.0827858 2.60309 9.09 161 168 164
-0.0727558 2.60022 9.08 161 168 164
-0.0628168 2.60022 9.08 160 167 163
-0 0 0 159 166 162
-0.0428443 2.5945 9.06 160 167 163
-0.0329272 2.5945 9.06 161 168 164
-0.0230101 2.5945 9.06 161 168 164
-0.013093 2.5945 9.06 156 163 159
-0.00317596 2.5945 9.06 159 166 162
0.00674112 2.5945 9.06 160 167 163
0.0166766 2.59736 9.07 160 167 163
0.0266046 2.59736 9.07 160 167 163
0.0365729 2.60022 9.08 161 168 164
0.0465631 2.60309 9.09 159 166 162
0.0564509 2.60022 9.08 159 164 160
0.0663898 2.60022 9.08 162 167 163
0.0763288 2.60022 9.08 163 168 164
0.0861728 2.59736 9.07 163 168 164
0.0959948 2.5945 9.06 163 168 164
0.105912 2.5945 9.06 163 168 164
0.115573 2.58877 9.04 163 168 164
0.12533 2.58591 9.03 163 168 164
0.135064 2.58304 9.02 161 166 162
0.144777 2.58018 9.01 162 167 163
0.154468 2.57731 9 163 168 164
0.164319 2.57731 9 161 166 162
0.173977 2.57445 8.99 161 166 162
0.183613 2.57159 8.98 166 171 167
0.193227 2.56872 8.97 164 169 165
0.203045 2.56872 8.97 159 164 160
0.212627 2.56586 8.96 162 167 163
0.222683 2.56872 8.97 164 169 165
0.232242 2.56586 8.96 163 168 164
0.24205 2.56586 8.96 162 167 163
0.251857 2.56586 8.96 163 168 164
0.261665 2.56586 8.96 162 167 163
0.271472 2.56586 8.96 156 161 157
0.281594 2.56872 8.97 155 160 156
0.291413 2.56872 8.97 164 169 165
0.301231 2.56872 8.97 162 167 163
0.311396 2.57159 8.98 161 166 162
0.321226 2.57159 8.98 161 166 162
0.331055 2.57159 8.98 161 166 162
0.341265 2.57445 8.99 163 168 164
0.350714 2.57159 8.98 163 168 164
0.360544 2.57159 8.98 161 166 162
0.370373 2.57159 8.98 159 164 160
0.37978 2.56872 8.97 159 164 160
0.389164 2.56586 8.96 159 164 160
0.398971 2.56586 8.96 158 163 159
0.408779 2.56586 8.96 158 163 159
0.41812 2.563 8.95 159 164 160
0.427916 2.563 8.95 158 163 159
0.437713 2.563 8.95 158 163 159
0.44751 2.563 8.95 161 166 162
0.457817 2.56586 8.96 161 166 162
0.467625 2.56586 8.96 162 167 163
0.477965 2.56872 8.97 162 167 163
0.487784 2.56872 8.97 162 167 163
0.498157 2.57159 8.98 163 168 164
0.508552 2.57445 8.99 163 168 164
0.518969 2.57731 9 162 167 163
0.529408 2.58018 9.01 159 164 160
0.539869 2.58304 9.02 158 163 159
0.550352 2.58591 9.03 157 162 158
0.560236 2.58591 9.03 159 164 160
0.570752 2.58877 9.04 159 164 160
0.581289 2.59163 9.05 161 166 162
0.591195 2.59163 9.05 162 167 163
0.600437 2.58877 9.04 162 167 163
0.610333 2.58877 9.04 165 166 163
0.620228 2.58877 9.04 165 166 163
0.629426 2.58591 9.03 164 165 162
0.63931 2.58591 9.03 166 167 164
0.649194 2.58591 9.03 165 166 163
0.659809 2.58877 9.04 162 163 160
0.669704 2.58877 9.04 158 162 161
0.680351 2.59163 9.05 159 163 162
0.69102 2.5945 9.06 163 167 166
0.700937 2.5945 9.06 161 165 164
0.711638 2.59736 9.07 157 163 162
0.722362 2.60022 9.08 159 165 164
0.732301 2.60022 9.08 161 168 164
0.74224 2.60022 9.08 161 168 164
0.752179 2.60022 9.08 161 168 164
0.761278 2.59736 9.07 159 166 162
0.771206 2.59736 9.07 157 164 160
0.780273 2.5945 9.06 157 164 160
0.789318 2.59163 9.05 156 163 159
0.798341 2.58877 9.04 155 162 158
0.807342 2.58591 9.03 159 166 162
0.817226 2.58591 9.03 159 166 162
0.826195 2.58304 9.02 157 164 160
0.835141 2.58018 9.01 157 164 160
0.845003 2.58018 9.01 155 162 158
0.854866 2.58018 9.01 156 163 159
0.864728 2.58018 9.01 159 166 162
0.87362 2.57731 9 160 167 163
0.883471 2.57731 9 159 166 162
0.893323 2.57731 9 159 166 162
0.903174 2.57731 9 159 166 162
0.91404 2.58018 9.01 157 164 160
0.923902 2.58018 9.01 157 167 162
0.934801 2.58304 9.02 154 164 159
0.944674 2.58304 9.02 153 163 158
0.955606 2.58591 9.03 155 165 160
0.96549 2.58591 9.03 157 166 164
0.976455 2.58877 9.04 154 163 161
0.98635 2.58877 9.04 153 162 160
0.996245 2.58877 9.04 153 162 160
1.00614 2.58877 9.04 152 161 159
1.01604 2.58877 9.04 152 161 159
1.0248 2.58591 9.03 152 161 159
1.03353 2.58304 9.02 153 162 160
1.04341 2.58304 9.02 152 161 159
1.05211 2.58018 9.01 154 163 161
1.0608 2.57731 9 157 166 164
1.07065 2.57731 9 155 164 162
1.0805 2.57731 9 153 162 160
1.08914 2.57445 8.99 155 164 162
1.09898 2.57445 8.99 157 166 164
1.10882 2.57445 8.99 157 166 164
1.1199 2.57731 9 157 166 164
1.12976 2.57731 9 153 162 160
1.13961 2.57731 9 151 161 156
1.14946 2.57731 9 151 161 156
1.15931 2.57731 9 148 158 153
1.17046 2.58018 9.01 150 160 155
1.18032 2.58018 9.01 151 161 156
1.19019 2.58018 9.01 151 161 156
1.20005 2.58018 9.01 151 161 156
1.20991 2.58018 9.01 152 162 157
1.21977 2.58018 9.01 153 163 158
1.22964 2.58018 9.01 153 163 158
1.2395 2.58018 9.01 153 163 158
1.25075 2.58304 9.02 153 163 158
1.26062 2.58304 9.02 153 163 158
1.27049 2.58304 9.02 152 162 157
1.28179 2.58591 9.03 151 161 156
1.2931 2.58877 9.04 153 163 158
1.30444 2.59163 9.05 151 161 156
1.3158 2.5945 9.06 147 157 152
1.32718 2.59736 9.07 146 155 153
1.3371 2.59736 9.07 148 157 155
1.34852 2.60022 9.08 148 157 155
1.35846 2.60022 9.08 153 162 160
1.3699 2.60309 9.09 153 162 160
1.37985 2.60309 9.09 152 161 159
1.38827 2.60022 9.08 150 159 157
1.39821 2.60022 9.08 146 155 153
1.40815 2.60022 9.08 146 155 153
1.41809 2.60022 9.08 150 159 157
1.42646 2.59736 9.07 152 161 159
1.43638 2.59736 9.07 144 153 151
1.44631 2.59736 9.07 148 159 157
1.45624 2.59736 9.07 148 159 157
1.46617 2.59736 9.07 146 157 155
1.4761 2.59736 9.07 145 156 154
1.48602 2.59736 9.07 142 153 151
1.49595 2.59736 9.07 143 154 152
1.50754 2.60022 9.08 146 155 153
1.51748 2.60022 9.08 146 155 153
1.5291 2.60309 9.09 146 155 153
1.53905 2.60309 9.09 146 155 153
1.5507 2.60595 9.1 145 154 152
1.56067 2.60595 9.1 146 155 153
1.57063 2.60595 9.1 145 154 152
1.58232 2.60881 9.11 147 156 154
1.59055 2.60595 9.1 150 159 157
1.60051 2.60595 9.1 139 148 146
1.61047 2.60595 9.1 141 152 151
1.62043 2.60595 9.1 113 124 123
1.6286 2.60309 9.09 108 117 121
1.63855 2.60309 9.09 99 108 112
1.6485 2.60309 9.09 100 110 112
1.65845 2.60309 9.09 106 116 118
1.6684 2.60309 9.09 106 116 118
1.67835 2.60309 9.09 103 113 115
1.69016 2.60595 9.1 103 116 115
1.70199 2.60881 9.11 100 113 112
1.71196 2.60881 9.11 98 111 110
1.72382 2.61168 9.12 100 113 112
1.7357 2.61454 9.13 106 117 116
1.74761 2.61741 9.14 105 116 115
1.75954 2.62027 9.15 103 114 113
1.76955 2.62027 9.15 101 112 111
1.78346 2.626 9.17 102 113 112
1.79545 2.62886 9.18 102 113 112
1.8055 2.62886 9.18 100 111 110
1.81753 2.63172 9.19 98 109 108
1.82957 2.63459 9.2 100 111 110
1.84164 2.63745 9.21 101 112 111
1.85374 2.64032 9.22 106 117 116
1.86585 2.64318 9.23 108 119 118
1.87798 2.64604 9.24 100 111 109
1.8881 2.64604 9.24 100 111 109
1.89821 2.64604 9.24 101 112 110
1.91039 2.64891 9.25 102 113 111
1.92052 2.64891 9.25 104 113 111
1.93273 2.65177 9.26 103 112 110
1.94496 2.65463 9.27 101 110 108
1.95722 2.6575 9.28 100 109 107
1.9695 2.66036 9.29 105 111 110
1.98393 2.66609 9.31 104 110 109
1.99626 2.66895 9.32 99 105 104
2.00862 2.67182 9.33 100 106 105
2.02099 2.67468 9.34 104 110 109
2.03339 2.67754 9.35 106 112 111
2.04362 2.67754 9.35 106 112 111
2.05606 2.68041 9.36 106 112 111
2.06851 2.68327 9.37 105 111 110
2.07877 2.68327 9.37 105 111 110
2.08902 2.68327 9.37 104 110 109
2.10152 2.68613 9.38 103 109 108
2.11404 2.689 9.39 101 111 106
2.12432 2.689 9.39 102 112 107
2.13687 2.69186 9.4 110 121 113
2.14716 2.69186 9.4 116 127 119
2.15974 2.69473 9.41 109 111 105
2.17004 2.69473 9.41 93 95 89
2.18266 2.69759 9.42 76 76 70
-0.555629 2.73665 9.52 113 113 107
-0.545208 2.73665 9.52 121 123 117
-0.534788 2.73665 9.52 116 118 112
-0.524367 2.73665 9.52 110 112 106
-0.513946 2.73665 9.52 108 110 104
-0.502997 2.73378 9.51 114 116 110
-0.492587 2.73378 9.51 114 116 110
-0.481671 2.7309 9.5 112 114 108
-0.470776 2.72803 9.49 114 116 110
-0.459903 2.72515 9.48 115 117 111
-0.449052 2.72228 9.47 117 119 113
-0.438223 2.71941 9.46 118 120 114
-0.427416 2.71653 9.45 118 120 114
-0.41663 2.71366 9.44 118 120 114
-0.405867 2.71078 9.43 119 121 115
-0.395125 2.70791 9.42 119 121 115
-0.384406 2.70503 9.41 118 120 114
-0.373708 2.70216 9.4 117 119 113
-0.363032 2.69928 9.39 118 120 114
-0.352378 2.69641 9.38 118 120 114
-0.341746 2.69353 9.37 118 120 114
-0.330782 2.68778 9.35 119 120 117
-0.319862 2.68204 9.33 121 122 119
-0.309317 2.67916 9.32 121 122 119
-0.298153 2.67054 9.29 122 123 120
-0.287674 2.66766 9.28 122 122 122
-0.276918 2.66191 9.26 122 122 122
-0.266494 2.65904 9.25 121 119 119
-0.255815 2.65329 9.23 126 124 124
-0.244913 2.64467 9.2 146 144 144
-0.234587 2.64179 9.19 161 159 159
-0.224284 2.63892 9.18 169 173 172
-0.214002 2.63604 9.17 159 163 162
-0.203742 2.63317 9.16 154 160 159
-0.193504 2.63029 9.15 155 161 160
-0.183288 2.62742 9.14 155 161 160
-0.173093 2.62454 9.13 155 161 160
-0.1631 2.62454 9.13 157 163 162
-0.152938 2.62167 9.12 159 165 164
-0.142956 2.62167 9.12 157 163 162
-0.132827 2.61879 9.11 157 163 162
