ply
format ascii 1.0
comment Created by Open3D
element vertex 1510
property double x
property double y
property double z
property uchar red
property uchar green
property uchar blue
end_header
0.106029 1.02764 9.07 120 84 38
0.115957 1.02764 9.07 86 51 15
0.125746 1.0265 9.06 146 111 75
0.135663 1.0265 9.06 185 163 143
0.14542 1.02537 9.05 172 150 130
0.155326 1.02537 9.05 179 163 146
0.165049 1.02424 9.04 175 159 142
0.174944 1.02424 9.04 172 158 141
0.18484 1.02424 9.04 171 157 140
0.194519 1.0231 9.03 171 156 141
0.204404 1.0231 9.03 173 158 143
0.214051 1.02197 9.02 170 157 142
0.223924 1.02197 9.02 168 155 140
0.233538 1.02084 9.01 169 156 141
0.2434 1.02084 9.01 168 155 140
0.253263 1.02084 9.01 164 153 140
0.263125 1.02084 9.01 164 153 140
0.272684 1.0197 9 161 150 137
0.282536 1.0197 9 159 148 135
0.292387 1.0197 9 158 147 134
0.302239 1.0197 9 158 147 134
0.31209 1.0197 9 158 147 136
0.322299 1.02084 9.01 160 149 138
0.332161 1.02084 9.01 157 148 137
0.342024 1.02084 9.01 156 147 136
0.352277 1.02197 9.02 156 146 137
0.36215 1.02197 9.02 155 145 136
0.372023 1.02197 9.02 147 140 135
0.38232 1.0231 9.03 147 140 135
0.392204 1.0231 9.03 147 142 146
-0 0 0 171 156 148
-0 0 0 167 152 144
-0 0 0 165 150 142
-0 0 0 166 151 143
-0 0 0 166 151 143
-0 0 0 167 152 144
-0 0 0 164 152 143
-0 0 0 167 155 146
-0 0 0 175 161 171
-0 0 0 114 100 110
-0 0 0 72 53 89
-0.320205 1.06846 9.34 79 60 96
-0.309649 1.06731 9.33 76 50 101
-0.299437 1.06731 9.33 69 43 94
-0.289224 1.06731 9.33 76 51 94
-0.279011 1.06731 9.33 90 65 108
-0.268799 1.06731 9.33 116 96 116
-0.258309 1.06617 9.32 141 121 141
-0.247841 1.06503 9.31 162 148 151
-0.23765 1.06503 9.31 169 155 158
-0.227215 1.06388 9.3 165 156 151
-0.216802 1.06274 9.29 165 156 151
-0.206633 1.06274 9.29 161 154 149
-0.196253 1.06159 9.28 155 148 143
-0.185895 1.06045 9.27 163 153 151
-0.175558 1.05931 9.26 104 94 92
-0.165422 1.05931 9.26 154 136 136
-0.155118 1.05816 9.25 137 119 119
-0.144837 1.05702 9.24 106 84 84
-0.134722 1.05702 9.24 100 78 78
-0.124473 1.05587 9.23 105 79 77
-0.114246 1.05473 9.22 105 79 77
-0.104041 1.05359 9.21 110 82 79
-0.09396 1.05359 9.21 108 80 77
-0.0837876 1.05244 9.2 105 78 72
-0.0737173 1.05244 9.2 102 75 69
-0.0635778 1.0513 9.19 103 80 69
-0.0534602 1.05015 9.18 105 82 71
-0.0434117 1.05015 9.18 110 93 78
-0.033327 1.04901 9.17 162 145 130
-0.0232641 1.04787 9.16 147 130 107
-0.0132376 1.04787 9.16 147 130 107
-0.00320751 1.04672 9.15 153 132 102
0.00680808 1.04672 9.15 143 122 92
0.0168053 1.04558 9.14 144 112 75
0.0268099 1.04558 9.14 117 85 48
0.0367743 1.04443 9.13 134 100 56
0.0467168 1.04329 9.12 133 99 55
0.0566995 1.04329 9.12 141 106 58
0.0666092 1.04215 9.11 142 107 59
0.0764969 1.041 9.1 141 106 58
0.0863628 1.03986 9.09 146 111 63
0.0962067 1.03871 9.08 156 120 74
0.106029 1.03757 9.07 114 78 32
0.115957 1.03757 9.07 83 49 10
0.125746 1.03643 9.06 146 112 73
0.135513 1.03528 9.05 191 169 147
0.14542 1.03528 9.05 187 165 143
0.155154 1.03414 9.04 175 161 144
0.165049 1.03414 9.04 172 158 141
0.174944 1.03414 9.04 172 158 141
0.184635 1.033 9.03 171 157 140
0.194519 1.033 9.03 170 156 139
0.204404 1.033 9.03 170 156 139
0.214288 1.033 9.03 169 156 141
0.223924 1.03185 9.02 169 156 141
0.233538 1.03071 9.01 169 156 141
0.2434 1.03071 9.01 169 156 141
0.252982 1.02956 9 167 154 139
0.263125 1.03071 9.01 167 154 139
0.272684 1.02956 9 161 150 137
0.282536 1.02956 9 161 150 137
0.292387 1.02956 9 160 149 136
0.302239 1.02956 9 160 149 136
0.31209 1.02956 9 160 149 138
0.322299 1.03071 9.01 160 149 138
0.332161 1.03071 9.01 159 148 137
0.342024 1.03071 9.01 159 148 137
0.352277 1.03185 9.02 156 146 137
0.36215 1.03185 9.02 154 144 135
0.372023 1.03185 9.02 147 140 135
0.38232 1.033 9.03 148 141 136
0.392204 1.033 9.03 140 135 139
-0 0 0 173 158 150
-0 0 0 165 150 142
-0 0 0 166 151 143
-0 0 0 166 151 143
-0 0 0 166 151 143
-0 0 0 166 151 143
-0 0 0 164 151 145
-0 0 0 172 159 153
-0 0 0 171 157 167
-0 0 0 92 78 88
-0 0 0 77 55 82
-0.320205 1.07869 9.34 78 56 83
-0.309649 1.07753 9.33 79 55 82
-0.299437 1.07753 9.33 94 70 97
-0.289224 1.07753 9.33 134 111 125
-0.279011 1.07753 9.33 160 137 151
-0.268511 1.07638 9.32 161 143 143
-0.258309 1.07638 9.32 163 145 145
-0.247841 1.07522 9.31 166 151 143
-0.23765 1.07522 9.31 166 151 143
-0.226971 1.07291 9.29 162 148 138
-0.216802 1.07291 9.29 141 127 117
-0.206411 1.07176 9.28 118 106 97
-0.196042 1.0706 9.27 125 113 104
-0.185895 1.0706 9.27 165 148 145
-0.175558 1.06945 9.26 98 81 78
-0.165243 1.06829 9.25 130 110 110
-0.155118 1.06829 9.25 139 119 119
-0.144837 1.06714 9.24 95 74 71
-0.134722 1.06714 9.24 99 78 75
-0.124473 1.06598 9.23 102 78 76
-0.11437 1.06598 9.23 103 79 77
-0.104154 1.06483 9.22 104 81 77
-0.094062 1.06483 9.22 108 85 81
-0.0838787 1.06367 9.21 117 93 86
-0.0737173 1.06252 9.2 136 112 105
-0.063647 1.06252 9.2 139 117 110
-0.0535184 1.06136 9.19 146 124 117
-0.0434117 1.06021 9.18 145 127 115
-0.0333633 1.06021 9.18 156 138 126
-0.0232895 1.05905 9.17 153 137 120
-0.0132376 1.0579 9.16 151 135 118
-0.00321101 1.0579 9.16 152 134 108
0.00680808 1.05675 9.15 152 134 108
0.0168237 1.05675 9.15 159 130 90
0.0268099 1.05559 9.14 128 99 59
0.0367743 1.05444 9.13 135 101 57
0.046768 1.05444 9.13 141 107 63
0.0566995 1.05328 9.12 149 115 69
0.0666092 1.05213 9.11 144 110 64
0.0764969 1.05097 9.1 144 111 63
0.0863628 1.04982 9.09 147 114 66
0.0962067 1.04866 9.08 156 122 76
0.106029 1.04751 9.07 118 84 38
0.115957 1.04751 9.07 81 50 10
0.125746 1.04635 9.06 141 110 70
0.135513 1.0452 9.05 187 166 141
0.14542 1.0452 9.05 173 152 127
0.155154 1.04404 9.04 178 165 145
0.165049 1.04404 9.04 172 159 139
0.174944 1.04404 9.04 172 158 141
0.184635 1.04289 9.03 172 158 141
0.194519 1.04289 9.03 170 156 139
0.204404 1.04289 9.03 169 155 138
0.214288 1.04289 9.03 168 156 139
0.223924 1.04173 9.02 168 156 139
0.233797 1.04173 9.02 169 157 140
0.2434 1.04058 9.01 168 156 139
0.253263 1.04058 9.01 169 156 141
0.263125 1.04058 9.01 168 155 140
0.272987 1.04058 9.01 163 153 137
0.28285 1.04058 9.01 161 151 135
0.292387 1.03942 9 160 149 136
0.302239 1.03942 9 160 149 136
0.312437 1.04058 9.01 160 149 138
0.322299 1.04058 9.01 159 148 137
0.332161 1.04058 9.01 159 148 137
0.342403 1.04173 9.02 158 147 136
0.351886 1.04058 9.01 156 146 137
0.36215 1.04173 9.02 154 144 135
0.372023 1.04173 9.02 150 142 135
0.381897 1.04173 9.02 154 146 139
0.392204 1.04289 9.03 134 130 131
-0 0 0 133 123 114
-0 0 0 171 156 148
-0 0 0 171 156 148
-0 0 0 173 158 150
-0 0 0 166 151 143
-0 0 0 163 148 140
-0 0 0 165 150 142
-0 0 0 165 149 144
-0 0 0 174 158 153
-0 0 0 169 152 158
-0 0 0 87 70 76
-0 0 0 75 55 68
-0.320205 1.08892 9.34 97 77 90
-0.309981 1.08892 9.34 139 117 129
-0.299758 1.08892 9.34 158 136 148
-0.289224 1.08775 9.33 162 145 142
-0.279011 1.08775 9.33 167 150 147
-0.268511 1.08659 9.32 123 105 93
-0.258309 1.08659 9.32 114 96 84
-0.247841 1.08542 9.31 120 97 86
-0.237395 1.08426 9.3 119 96 85
-0.226971 1.08309 9.29 116 90 80
-0.216802 1.08309 9.29 108 82 72
-0.206411 1.08192 9.28 106 87 79
-0.196042 1.08076 9.27 125 106 98
-0.185895 1.08076 9.27 145 129 124
-0.175558 1.07959 9.26 98 82 77
-0.165422 1.07959 9.26 120 102 102
-0.155118 1.07843 9.25 158 140 140
-0.144837 1.07726 9.24 122 102 102
-0.134722 1.07726 9.24 130 110 110
-0.124473 1.07609 9.23 148 130 130
-0.11437 1.07609 9.23 158 140 140
-0.104267 1.07609 9.23 163 145 145
-0.094164 1.07609 9.23 168 150 150
-0.0839698 1.07493 9.22 168 150 150
-0.0737974 1.07376 9.21 169 151 151
-0.063647 1.0726 9.2 171 151 151
-0.0535767 1.0726 9.2 168 148 148
-0.043459 1.07143 9.19 162 142 142
-0.0333633 1.07027 9.18 147 127 127
-0.0232895 1.0691 9.17 135 119 109
-0.013252 1.0691 9.17 132 116 106
-0.00321101 1.06793 9.16 142 125 97
0.00680808 1.06677 9.15 147 130 102
0.0168237 1.06677 9.15 149 120 80
0.0268099 1.0656 9.14 129 100 60
0.0367743 1.06444 9.13 136 104 60
0.046768 1.06444 9.13 147 115 71
0.0566995 1.06327 9.12 147 115 69
0.0666092 1.0621 9.11 144 112 66
0.0764969 1.06094 9.1 146 112 66
0.0863628 1.05977 9.09 148 114 68
0.0962067 1.05861 9.08 159 125 79
0.106029 1.05744 9.07 139 105 59
0.115829 1.05628 9.06 85 55 13
0.125746 1.05628 9.06 137 107 65
0.135513 1.05511 9.05 186 165 140
0.14542 1.05511 9.05 173 152 127
0.155154 1.05394 9.04 172 159 139
0.165049 1.05394 9.04 171 158 138
0.174944 1.05394 9.04 172 159 139
0.184635 1.05278 9.03 172 159 139
0.194519 1.05278 9.03 171 157 140
0.204404 1.05278 9.03 170 156 139
0.214288 1.05278 9.03 167 155 138
0.224172 1.05278 9.03 168 156 139
0.233797 1.05161 9.02 168 155 140
0.24367 1.05161 9.02 167 154 139
0.253544 1.05161 9.02 167 154 139
0.263417 1.05161 9.02 166 153 138
0.272987 1.05045 9.01 165 151 139
0.28285 1.05045 9.01 163 149 137
0.292712 1.05045 9.01 160 149 136
0.302574 1.05045 9.01 159 148 135
0.312437 1.05045 9.01 160 149 138
0.322299 1.05045 9.01 160 149 138
0.332161 1.05045 9.01 159 147 138
0.342403 1.05161 9.02 157 145 136
0.352277 1.05161 9.02 157 145 136
0.36215 1.05161 9.02 156 144 135
0.372023 1.05161 9.02 152 144 137
0.38232 1.05278 9.03 153 145 138
0.392204 1.05278 9.03 135 131 132
-0 0 0 138 125 119
-0 0 0 160 145 137
-0 0 0 170 155 147
-0 0 0 177 162 154
-0 0 0 166 151 143
-0 0 0 163 148 140
-0 0 0 163 148 140
-0 0 0 163 148 140
-0 0 0 173 158 150
-0 0 0 155 137 137
-0 0 0 99 81 81
-0 0 0 139 118 121
-0.320205 1.09915 9.34 163 142 145
-0.309981 1.09915 9.34 173 157 152
-0.299758 1.09915 9.34 171 155 150
-0.289224 1.09797 9.33 168 154 144
-0.279011 1.09797 9.33 156 142 132
-0.268511 1.0968 9.32 130 110 96
-0.258309 1.0968 9.32 123 103 89
-0.247841 1.09562 9.31 105 83 69
-0.237395 1.09444 9.3 98 76 62
-0.226971 1.09327 9.29 95 72 61
-0.216569 1.09209 9.28 97 74 63
-0.206411 1.09209 9.28 103 84 76
-0.196042 1.09091 9.27 124 105 97
-0.185895 1.09091 9.27 142 126 121
-0.175558 1.08974 9.26 138 122 117
-0.165422 1.08974 9.26 166 149 146
-0.155118 1.08856 9.25 174 157 154
-0.144993 1.08856 9.25 168 152 154
-0.134722 1.08738 9.24 168 152 154
-0.124608 1.08738 9.24 163 148 154
-0.11437 1.0862 9.23 163 148 154
-0.10438 1.08738 9.24 157 144 151
-0.094164 1.0862 9.23 153 140 147
-0.0840608 1.0862 9.23 128 108 121
-0.0737974 1.08385 9.21 100 80 93
-0.0637162 1.08385 9.21 100 79 97
-0.0535767 1.08267 9.2 116 95 113
-0.043459 1.0815 9.19 117 94 110
-0.0333997 1.0815 9.19 102 79 95
-0.0233149 1.08032 9.18 99 80 77
-0.013252 1.07914 9.17 99 80 77
-0.00321101 1.07797 9.16 104 88 62
0.00681552 1.07797 9.16 136 120 94
0.0168237 1.07679 9.15 141 113 76
0.0268099 1.07561 9.14 129 101 64
0.0367743 1.07444 9.13 136 107 60
0.046768 1.07444 9.13 144 115 68
0.0566995 1.07326 9.12 143 114 67
0.0666092 1.07208 9.11 142 113 66
0.0764969 1.07091 9.1 142 113 66
0.0863628 1.06973 9.09 144 115 68
0.0962067 1.06855 9.08 153 121 75
0.106029 1.06738 9.07 151 119 73
0.115957 1.06738 9.07 88 60 18
0.125746 1.0662 9.06 132 104 62
0.135513 1.06502 9.05 188 168 141
0.14542 1.06502 9.05 186 166 139
0.155154 1.06385 9.04 172 159 139
0.165049 1.06385 9.04 172 159 139
0.174944 1.06385 9.04 172 158 141
0.18484 1.06385 9.04 171 157 140
0.194519 1.06267 9.03 170 156 139
0.20463 1.06385 9.04 169 155 138
0.214288 1.06267 9.03 167 154 139
0.224172 1.06267 9.03 167 154 139
0.234056 1.06267 9.03 168 155 140
0.243941 1.06267 9.03 166 153 138
0.253544 1.06149 9.02 166 153 138
0.263709 1.06267 9.03 165 152 137
0.27329 1.06149 9.02 165 152 137
0.283164 1.06149 9.02 166 153 138
0.293037 1.06149 9.02 162 148 136
0.30291 1.06149 9.02 159 145 133
0.312783 1.06149 9.02 158 147 134
0.322657 1.06149 9.02 159 148 135
0.33253 1.06149 9.02 159 147 138
0.342403 1.06149 9.02 158 146 137
0.352277 1.06149 9.02 158 146 137
0.36215 1.06149 9.02 156 144 135
0.372023 1.06149 9.02 150 141 136
0.38232 1.06267 9.03 154 145 140
0.392204 1.06267 9.03 133 129 130
-0 0 0 149 136 130
-0 0 0 170 153 145
-0 0 0 171 154 146
-0 0 0 169 152 144
-0 0 0 167 150 142
-0 0 0 165 148 140
-0 0 0 165 148 140
-0 0 0 165 148 140
-0 0 0 169 152 144
-0 0 0 162 144 139
-0 0 0 167 149 144
-0 0 0 170 154 149
-0.320548 1.11057 9.35 171 155 150
-0.309981 1.10938 9.34 165 150 142
-0.299758 1.10938 9.34 166 151 143
-0.289534 1.10938 9.34 169 155 145
-0.279011 1.10819 9.33 159 145 135
-0.268511 1.10701 9.32 123 106 91
-0.258032 1.10582 9.31 116 99 84
-0.247841 1.10582 9.31 105 85 71
-0.237395 1.10463 9.3 115 95 81
-0.226971 1.10344 9.29 127 109 97
-0.216802 1.10344 9.29 142 124 112
-0.206411 1.10225 9.28 153 137 132
-0.196042 1.10107 9.27 163 147 142
-0.185895 1.10107 9.27 168 154 150
-0.175748 1.10107 9.27 169 155 151
-0.165422 1.09988 9.26 166 151 157
-0.155286 1.09988 9.26 141 126 132
-0.144993 1.09869 9.25 157 145 155
-0.134868 1.09869 9.25 157 145 155
-0.124608 1.0975 9.24 115 102 121
-0.114494 1.0975 9.24 106 93 112
-0.10438 1.0975 9.24 100 85 109
-0.094266 1.0975 9.24 136 121 145
-0.0840608 1.09632 9.23 94 74 103
-0.0738776 1.09513 9.22 108 88 117
-0.0637162 1.09394 9.21 101 78 108
-0.0536349 1.09394 9.21 91 68 98
-0.0435063 1.09275 9.2 95 73 98
-0.0333997 1.09156 9.19 100 78 103
-0.0233149 1.09038 9.18 109 93 96
-0.013252 1.08919 9.17 109 93 96
-0.00321452 1.08919 9.17 120 104 78
0.00681552 1.088 9.16 122 106 80
0.0168237 1.08681 9.15 129 105 64
0.0268099 1.08563 9.14 125 101 60
0.0368146 1.08563 9.14 134 105 58
0.046768 1.08444 9.13 138 109 62
0.0566995 1.08325 9.12 142 113 66
0.0666092 1.08206 9.11 143 114 67
0.0764969 1.08087 9.1 144 115 68
0.0863628 1.07969 9.09 144 115 68
0.0962067 1.0785 9.08 147 118 71
0.106029 1.07731 9.07 156 127 80
0.115957 1.07731 9.07 97 69 27
0.125746 1.07612 9.06 129 101 59
0.135663 1.07612 9.06 187 167 140
0.14542 1.07494 9.05 180 160 133
0.155326 1.07494 9.05 170 155 135
0.165049 1.07375 9.04 171 156 136
0.174944 1.07375 9.04 169 155 138
0.18484 1.07375 9.04 169 155 138
0.194735 1.07375 9.04 168 156 139
0.20463 1.07375 9.04 167 155 138
0.214525 1.07375 9.04 167 154 139
0.22442 1.07375 9.04 166 153 138
0.234056 1.07256 9.03 167 154 139
0.243941 1.07256 9.03 167 154 139
0.253825 1.07256 9.03 168 154 142
0.263709 1.07256 9.03 166 152 140
0.273593 1.07256 9.03 165 151 139
0.283478 1.07256 9.03 166 152 140
0.293362 1.07256 9.03 168 154 142
0.303246 1.07256 9.03 163 149 137
0.31313 1.07256 9.03 161 147 135
0.322657 1.07137 9.02 160 146 134
0.332899 1.07256 9.03 157 145 136
0.342783 1.07256 9.03 157 145 136
0.352667 1.07256 9.03 157 145 136
0.36215 1.07137 9.02 156 144 135
0.372436 1.07256 9.03 150 142 135
0.38232 1.07256 9.03 155 147 140
0.392204 1.07256 9.03 137 133 134
-0 0 0 149 138 132
-0 0 0 160 144 139
-0 0 0 169 153 148
-0 0 0 166 151 143
-0 0 0 165 150 142
-0 0 0 167 150 142
-0 0 0 165 148 140
-0 0 0 165 148 140
-0 0 0 167 150 142
-0 0 0 169 152 144
-0 0 0 163 146 138
-0.330782 1.12081 9.35 162 148 138
-0.320548 1.12081 9.35 166 152 142
-0.309981 1.11961 9.34 161 147 137
-0.299758 1.11961 9.34 162 148 138
-0.289534 1.11961 9.34 163 149 139
-0.279011 1.11841 9.33 161 147 137
-0.268799 1.11841 9.33 133 117 105
-0.258309 1.11721 9.32 129 113 101
-0.247841 1.11602 9.31 146 129 114
-0.237395 1.11482 9.3 169 152 137
-0.226971 1.11362 9.29 165 150 142
-0.216802 1.11362 9.29 161 146 138
-0.206411 1.11242 9.28 152 139 138
-0.196253 1.11242 9.28 137 124 123
-0.185895 1.11122 9.27 113 98 104
-0.175748 1.11122 9.27 154 139 145
-0.165422 1.11002 9.26 145 129 151
-0.155286 1.11002 9.26 95 79 101
-0.14515 1.11002 9.26 130 118 141
-0.134868 1.10882 9.25 122 110 133
-0.124743 1.10882 9.25 112 99 127
-0.114494 1.10762 9.24 108 95 123
-0.10438 1.10762 9.24 93 74 110
-0.094266 1.10762 9.24 116 97 133
-0.0840608 1.10643 9.23 96 75 111
-0.0739577 1.10643 9.23 119 98 134
-0.0637853 1.10523 9.22 104 83 114
-0.0536349 1.10403 9.21 93 72 103
-0.0435063 1.10283 9.2 86 66 95
-0.0333997 1.10163 9.19 105 85 114
-0.0233403 1.10163 9.19 103 86 97
-0.0132665 1.10043 9.18 105 88 99
-0.00321452 1.09923 9.17 120 106 84
0.00681552 1.09803 9.16 123 109 87
0.0168237 1.09684 9.15 126 107 65
0.0268393 1.09684 9.15 119 100 58
0.0368146 1.09564 9.14 141 113 64
0.046768 1.09444 9.13 142 114 65
0.0566995 1.09324 9.12 142 114 65
0.0666092 1.09204 9.11 144 116 67
0.0764969 1.09084 9.1 144 115 68
0.0863628 1.08964 9.09 142 113 66
0.0962067 1.08844 9.08 147 118 71
0.106029 1.08725 9.07 148 119 72
0.115957 1.08725 9.07 109 81 39
0.125746 1.08605 9.06 129 101 59
0.135663 1.08605 9.06 188 166 139
0.14542 1.08485 9.05 181 159 132
0.155326 1.08485 9.05 169 154 134
0.165232 1.08485 9.05 169 154 134
0.174944 1.08365 9.04 167 153 136
0.18484 1.08365 9.04 169 155 138
0.194735 1.08365 9.04 167 154 139
0.20463 1.08365 9.04 167 154 139
0.214525 1.08365 9.04 166 153 138
0.22442 1.08365 9.04 165 152 137
0.234316 1.08365 9.04 165 152 137
0.244211 1.08365 9.04 166 153 138
0.253825 1.08245 9.03 167 153 141
0.264001 1.08365 9.04 168 154 142
0.273896 1.08365 9.04 167 153 141
0.283791 1.08365 9.04 165 151 139
0.293362 1.08245 9.03 165 151 139
0.303246 1.08245 9.03 162 148 136
0.31313 1.08245 9.03 161 147 135
0.323014 1.08245 9.03 159 145 133
0.332899 1.08245 9.03 157 145 136
0.342783 1.08245 9.03 156 144 135
0.352667 1.08245 9.03 158 146 137
0.362551 1.08245 9.03 157 145 136
0.372436 1.08245 9.03 155 146 141
0.38232 1.08245 9.03 152 143 138
0.392204 1.08245 9.03 136 132 132
-0 0 0 156 143 137
-0 0 0 158 143 135
-0 0 0 162 147 139
-0 0 0 166 151 143
-0 0 0 166 151 143
-0 0 0 168 151 143
-0 0 0 167 150 142
-0 0 0 168 151 143
-0 0 0 170 153 145
-0 0 0 157 140 132
-0 0 0 161 144 136
-0.330782 1.13105 9.35 162 146 136
-0.320548 1.13105 9.35 164 148 138
-0.310313 1.13105 9.35 161 147 137
-0.300078 1.13105 9.35 161 147 137
-0.289534 1.12984 9.34 162 148 138
-0.279011 1.12863 9.33 162 148 138
-0.268799 1.12863 9.33 158 144 134
-0.258309 1.12742 9.32 165 151 141
-0.247841 1.12621 9.31 169 153 148
-0.237395 1.125 9.3 155 139 134
-0.226971 1.12379 9.29 136 120 123
-0.216569 1.12258 9.28 123 107 110
-0.206411 1.12258 9.28 122 106 114
-0.196042 1.12137 9.27 130 114 122
-0.185895 1.12137 9.27 100 82 104
-0.175748 1.12137 9.27 126 108 130
-0.165422 1.12016 9.26 119 102 142
-0.155286 1.12016 9.26 76 59 99
-0.14515 1.12016 9.26 98 84 119
-0.134868 1.11895 9.25 112 98 133
-0.124743 1.11895 9.25 125 111 146
-0.114618 1.11895 9.25 107 93 128
-0.10438 1.11775 9.24 94 77 115
-0.094266 1.11775 9.24 107 90 128
-0.0841519 1.11775 9.24 88 69 105
-0.0739577 1.11654 9.23 93 74 110
-0.0638545 1.11654 9.23 118 99 130
-0.0536349 1.11412 9.21 126 107 138
-0.0435536 1.11412 9.21 90 71 95
-0.033436 1.11291 9.2 93 74 98
-0.0233403 1.1117 9.19 97 78 89
-0.0132665 1.11049 9.18 110 91 102
-0.00321452 1.10928 9.17 127 109 90
0.00682297 1.10928 9.17 130 112 93
0.0168421 1.10807 9.16 128 106 65
0.0268393 1.10686 9.15 114 92 51
0.0368146 1.10565 9.14 149 118 70
0.0468192 1.10565 9.14 156 125 77
0.0567617 1.10444 9.13 145 117 68
0.0666823 1.10323 9.12 145 117 68
0.076581 1.10202 9.11 145 116 69
0.0863628 1.0996 9.09 143 114 67
0.0962067 1.09839 9.08 144 115 70
0.106146 1.09839 9.08 150 121 76
0.115957 1.09718 9.07 122 93 53
0.125746 1.09597 9.06 125 96 56
0.135663 1.09597 9.06 186 163 138
0.14558 1.09597 9.06 186 163 138
0.155326 1.09476 9.05 169 154 134
0.165232 1.09476 9.05 169 154 134
0.175138 1.09476 9.05 169 154 139
0.185044 1.09476 9.05 170 155 140
0.194735 1.09355 9.04 168 155 140
0.20463 1.09355 9.04 168 155 140
0.214525 1.09355 9.04 166 153 138
0.22442 1.09355 9.04 165 152 137
0.234316 1.09355 9.04 163 149 137
0.244211 1.09355 9.04 159 145 133
0.254106 1.09355 9.04 151 137 125
0.264293 1.09476 9.05 163 149 137
0.274199 1.09476 9.05 166 152 140
0.284105 1.09476 9.05 163 149 137
0.294012 1.09476 9.05 162 148 136
0.303918 1.09476 9.05 162 148 136
0.313477 1.09355 9.04 161 147 135
0.323372 1.09355 9.04 160 146 134
0.333267 1.09355 9.04 156 144 135
0.342783 1.09234 9.03 156 144 135
0.352667 1.09234 9.03 158 146 137
0.362551 1.09234 9.03 158 146 137
0.372436 1.09234 9.03 157 148 143
0.38232 1.09234 9.03 157 148 143
0.392204 1.09234 9.03 134 130 130
-0 0 0 138 125 119
-0 0 0 160 147 141
-0 0 0 157 145 136
-0 0 0 160 148 139
-0 0 0 165 151 141
-0 0 0 167 153 143
-0 0 0 168 154 144
-0 0 0 168 154 144
-0 0 0 167 153 143
-0 0 0 163 149 139
-0 0 0 155 139 129
-0 0 0 161 145 135
-0.331136 1.14251 9.36 164 148 138
-0.320548 1.14129 9.35 164 148 138
-0.310313 1.14129 9.35 161 147 137
-0.300078 1.14129 9.35 161 147 137
-0.289534 1.14007 9.34 161 147 137
-0.279011 1.13885 9.33 163 149 139
-0.268799 1.13885 9.33 168 151 148
-0.258309 1.13763 9.32 155 138 135
-0.247841 1.13641 9.31 119 103 106
-0.23765 1.13641 9.31 115 99 102
-0.226971 1.13397 9.29 116 99 110
-0.216802 1.13397 9.29 124 107 118
-0.206411 1.13275 9.28 123 105 118
-0.196253 1.13275 9.28 142 124 137
-0.185895 1.13153 9.27 110 90 119
-0.175748 1.13153 9.27 105 85 114
-0.165601 1.13153 9.27 79 58 101
-0.155286 1.13031 9.26 77 56 99
-0.14515 1.13031 9.26 79 64 102
-0.135014 1.13031 9.26 110 95 133
-0.124743 1.12909 9.25 133 119 154
-0.114618 1.12909 9.25 109 95 130
-0.10438 1.12787 9.24 97 79 113
-0.094266 1.12787 9.24 95 77 111
-0.0840608 1.12665 9.23 87 71 100
-0.0739577 1.12665 9.23 116 100 129
-0.0637853 1.12543 9.22 139 122 146
-0.0536349 1.1242 9.21 137 120 144
-0.0435536 1.1242 9.21 91 71 91
-0.033436 1.12298 9.2 85 65 85
-0.0233403 1.12176 9.19 87 66 75
-0.0132665 1.12054 9.18 109 88 97
-0.00321802 1.12054 9.18 129 109 95
0.00682297 1.11932 9.17 131 111 97
0.0168421 1.1181 9.16 128 103 65
0.0268393 1.11688 9.15 109 84 46
0.0368549 1.11688 9.15 142 111 63
0.0468192 1.11566 9.14 143 112 64
0.0567617 1.11444 9.13 147 119 70
0.0666823 1.11322 9.12 145 117 68
0.076581 1.112 9.11 149 120 73
0.0864578 1.11078 9.1 158 129 82
0.0963127 1.10956 9.09 152 124 82
0.106146 1.10834 9.08 152 124 82
0.115957 1.10712 9.07 125 97 60
0.125885 1.10712 9.07 117 89 52
0.135663 1.1059 9.06 187 164 139
0.14558 1.1059 9.06 182 159 134
0.155497 1.1059 9.06 167 151 134
0.165414 1.1059 9.06 169 153 136
0.175138 1.10467 9.05 170 155 140
0.185044 1.10467 9.05 170 155 140
0.19495 1.10467 9.05 169 156 141
0.204856 1.10467 9.05 169 156 141
0.214762 1.10467 9.05 167 153 141
0.22442 1.10345 9.04 165 151 139
0.234316 1.10345 9.04 165 151 139
0.244211 1.10345 9.04 162 148 136
0.254387 1.10467 9.05 163 149 137
0.264293 1.10467 9.05 166 152 140
0.274199 1.10467 9.05 165 151 139
0.284105 1.10467 9.05 162 148 136
0.294012 1.10467 9.05 162 148 138
0.303918 1.10467 9.05 161 147 137
0.313824 1.10467 9.05 161 147 137
0.323372 1.10345 9.04 160 146 136
0.333267 1.10345 9.04 157 145 136
0.343163 1.10345 9.04 156 144 135
0.352667 1.10223 9.03 156 144 135
0.362551 1.10223 9.03 154 142 133
0.372436 1.10223 9.03 151 139 135
0.38232 1.10223 9.03 154 142 138
0.392204 1.10223 9.03 141 137 138
-0 0 0 142 130 121
-0 0 0 159 147 138
-0 0 0 159 148 137
-0 0 0 163 152 141
-0 0 0 165 151 141
-0 0 0 166 152 142
-0 0 0 167 153 143
-0 0 0 167 153 143
-0 0 0 166 152 142
-0 0 0 161 147 137
-0 0 0 160 146 136
-0 0 0 160 146 136
-0.33149 1.154 9.37 161 147 137
-0.32089 1.15277 9.36 163 149 139
-0.310645 1.15277 9.36 167 153 143
-0.300078 1.15154 9.35 169 155 145
-0.289844 1.15154 9.35 165 150 142
-0.27931 1.1503 9.34 154 139 131
-0.268799 1.14907 9.33 171 153 153
-0.258309 1.14784 9.32 135 117 117
-0.248107 1.14784 9.32 101 82 93
-0.23765 1.14661 9.31 103 84 95
-0.227215 1.14538 9.3 116 98 111
-0.216802 1.14415 9.29 140 122 135
-0.206411 1.14291 9.28 156 138 151
-0.196253 1.14291 9.28 158 140 153
-0.185895 1.14168 9.27 133 115 137
-0.175748 1.14168 9.27 86 68 90
-0.165601 1.14168 9.27 86 67 103
-0.155286 1.14045 9.26 99 80 116
-0.14515 1.14045 9.26 78 63 96
-0.135014 1.14045 9.26 98 83 116
-0.124743 1.13922 9.25 135 121 151
-0.114618 1.13922 9.25 111 97 127
-0.10438 1.13799 9.24 109 93 122
-0.094266 1.13799 9.24 120 104 133
-0.0840608 1.13676 9.23 137 122 146
-0.0738776 1.13552 9.22 155 140 164
-0.0637162 1.13429 9.21 153 138 157
-0.0536349 1.13429 9.21 151 136 155
-0.0435063 1.13306 9.2 141 123 138
-0.033436 1.13306 9.2 134 116 131
-0.0233403 1.13183 9.19 136 113 122
-0.0132665 1.1306 9.18 135 112 121
-0.00321802 1.1306 9.18 135 111 104
0.00682297 1.12937 9.17 132 108 101
0.0168421 1.12813 9.16 129 104 71
0.0268686 1.12813 9.16 113 88 55
0.0368549 1.1269 9.15 117 91 42
0.0468192 1.12567 9.14 145 119 70
0.0567617 1.12444 9.13 163 133 82
0.0666823 1.12321 9.12 157 127 76
0.076581 1.12198 9.11 157 130 85
0.0864578 1.12075 9.1 163 136 91
0.0963127 1.11951 9.09 173 145 103
0.106146 1.11828 9.08 167 139 97
0.116085 1.11828 9.08 115 90 52
0.125885 1.11705 9.07 113 88 50
0.135813 1.11705 9.07 187 164 139
0.145741 1.11705 9.07 186 163 138
0.155669 1.11705 9.07 169 153 136
0.165414 1.11582 9.06 170 154 137
0.175331 1.11582 9.06 168 155 140
0.185044 1.11459 9.05 169 156 141
0.19495 1.11459 9.05 169 156 141
0.204856 1.11459 9.05 169 156 141
0.214762 1.11459 9.05 167 153 141
0.224669 1.11459 9.05 166 152 140
0.234575 1.11459 9.05 165 151 139
0.244481 1.11459 9.05 166 152 140
0.254387 1.11459 9.05 169 155 143
0.264293 1.11459 9.05 163 149 137
0.274502 1.11582 9.06 159 148 137
0.284419 1.11582 9.06 161 150 139
0.294012 1.11459 9.05 161 150 139
0.303918 1.11459 9.05 159 148 137
0.313824 1.11459 9.05 158 147 136
0.32373 1.11459 9.05 159 148 137
0.333267 1.11336 9.04 158 146 137
0.343163 1.11336 9.04 157 145 136
0.353058 1.11336 9.04 156 144 135
0.362953 1.11336 9.04 153 141 132
0.372848 1.11336 9.04 148 139 134
0.382743 1.11336 9.04 147 138 133
0.392639 1.11336 9.04 143 139 140
-0 0 0 136 124 115
-0 0 0 164 152 143
-0 0 0 160 149 138
-0 0 0 163 152 141
-0 0 0 164 153 140
-0 0 0 164 153 140
-0 0 0 164 153 140
-0 0 0 165 154 141
-0 0 0 165 154 143
-0 0 0 160 149 138
-0 0 0 159 148 137
-0 0 0 159 148 137
-0.331843 1.1655 9.38 160 148 139
-0.321233 1.16426 9.37 167 155 146
-0.310977 1.16426 9.37 171 154 146
-0.300399 1.16302 9.36 156 139 131
-0.289844 1.16178 9.35 118 101 93
-0.27931 1.16053 9.34 116 99 91
-0.269087 1.16053 9.34 173 157 159
-0.258586 1.15929 9.33 158 142 144
-0.248107 1.15805 9.32 96 78 91
-0.23765 1.15681 9.31 114 96 109
-0.22746 1.15681 9.31 148 131 142
-0.216802 1.15432 9.29 154 137 148
-0.206411 1.15308 9.28 161 144 155
-0.196253 1.15308 9.28 165 148 159
-0.186095 1.15308 9.28 150 132 145
-0.175748 1.15184 9.27 89 71 84
-0.165601 1.15184 9.27 105 88 114
-0.155454 1.15184 9.27 123 106 132
-0.14515 1.15059 9.26 92 77 103
-0.135014 1.15059 9.26 134 119 145
-0.124743 1.14935 9.25 155 140 164
-0.114494 1.14811 9.24 146 131 155
-0.10438 1.14811 9.24 149 134 158
-0.094164 1.14687 9.23 155 140 164
-0.0840608 1.14687 9.23 154 142 165
-0.0738776 1.14562 9.22 154 142 165
-0.0637162 1.14438 9.21 152 137 161
-0.0535767 1.14314 9.2 148 133 157
-0.0435063 1.14314 9.2 147 128 146
-0.0333997 1.1419 9.19 137 118 136
-0.0233403 1.1419 9.19 137 112 121
-0.0132665 1.14065 9.18 125 100 109
-0.00321802 1.14065 9.18 124 99 95
0.00682297 1.13941 9.17 117 92 88
0.0168421 1.13817 9.16 125 100 69
0.0268686 1.13817 9.16 123 98 67
0.0368549 1.13693 9.15 101 73 24
0.0468192 1.13568 9.14 117 89 40
0.0567617 1.13444 9.13 137 105 54
0.0667554 1.13444 9.13 144 112 61
0.076665 1.1332 9.12 168 139 94
0.0865528 1.13196 9.11 178 149 104
0.0964186 1.13071 9.1 180 154 112
0.106263 1.12947 9.09 166 140 98
0.116085 1.12823 9.08 104 75 40
0.126024 1.12823 9.08 112 83 48
0.135963 1.12823 9.08 181 158 133
0.145902 1.12823 9.08 190 167 142
0.155669 1.12699 9.07 170 154 137
0.165597 1.12699 9.07 172 156 139
0.175331 1.12574 9.06 169 156 141
0.185249 1.12574 9.06 168 155 140
0.195166 1.12574 9.06 168 155 140
0.204856 1.1245 9.05 170 157 142
0.214762 1.1245 9.05 169 155 143
0.224669 1.1245 9.05 168 154 142
0.234575 1.1245 9.05 166 152 140
0.244481 1.1245 9.05 166 152 140
0.254387 1.1245 9.05 166 152 142
0.264585 1.12574 9.06 165 151 141
0.274502 1.12574 9.06 160 149 138
0.284419 1.12574 9.06 163 152 141
0.294336 1.12574 9.06 163 152 141
0.304253 1.12574 9.06 160 149 138
0.313824 1.1245 9.05 159 148 137
0.32373 1.1245 9.05 159 148 137
0.333636 1.1245 9.05 159 147 138
0.343163 1.12326 9.04 158 146 137
0.353058 1.12326 9.04 155 145 136
0.362953 1.12326 9.04 154 144 135
0.372848 1.12326 9.04 150 141 136
0.382743 1.12326 9.04 150 141 136
0.392204 1.12202 9.03 145 143 144
-0 0 0 139 128 117
-0 0 0 160 149 138
-0 0 0 164 153 142
-0 0 0 165 154 143
-0 0 0 164 153 140
-0 0 0 164 153 140
-0 0 0 164 153 140
-0 0 0 166 155 142
-0 0 0 174 165 152
-0 0 0 158 149 136
-0 0 0 158 149 138
-0.342111 1.17578 9.38 158 149 138
-0.331843 1.17578 9.38 166 154 145
-0.321233 1.17453 9.37 151 139 130
-0.310977 1.17453 9.37 112 95 87
-0.30072 1.17453 9.37 108 91 83
-0.290154 1.17327 9.36 108 89 81
-0.279609 1.17202 9.35 127 108 100
-0.269087 1.17076 9.34 178 162 164
-0.258586 1.16951 9.33 171 155 157
-0.248374 1.16951 9.33 94 77 88
-0.237906 1.16826 9.32 129 112 123
-0.22746 1.167 9.31 171 154 165
-0.217036 1.16575 9.3 164 147 158
-0.206633 1.1645 9.29 161 146 152
-0.196253 1.16324 9.28 159 144 150
-0.186095 1.16324 9.28 148 132 140
-0.175937 1.16324 9.28 123 107 115
-0.165601 1.16199 9.27 156 140 157
-0.155454 1.16199 9.27 163 147 164
-0.14515 1.16074 9.26 165 148 172
-0.135014 1.16074 9.26 165 148 172
-0.124743 1.15948 9.25 159 144 168
-0.114494 1.15823 9.24 158 143 167
-0.104267 1.15698 9.23 151 138 166
-0.094164 1.15698 9.23 142 129 157
-0.0839698 1.15572 9.22 126 115 143
-0.0737974 1.15447 9.21 121 110 138
-0.063647 1.15322 9.2 110 94 123
-0.0535767 1.15322 9.2 94 78 107
-0.043459 1.15196 9.19 91 67 94
-0.0333997 1.15196 9.19 89 65 92
-0.0233149 1.15071 9.18 112 82 97
-0.0132665 1.15071 9.18 115 85 100
-0.00321452 1.14946 9.17 122 95 89
0.00682297 1.14946 9.17 116 89 83
0.0168421 1.1482 9.16 120 93 62
0.0268393 1.14695 9.15 113 86 55
0.0368549 1.14695 9.15 104 71 23
0.0468192 1.1457 9.14 103 70 22
0.0568239 1.1457 9.14 108 71 21
0.0667554 1.14444 9.13 121 84 34
0.076665 1.14319 9.12 134 101 53
0.0865528 1.14193 9.11 179 146 98
0.0965246 1.14193 9.11 177 148 103
0.10638 1.14068 9.1 134 105 60
0.116213 1.13943 9.09 96 68 31
0.126162 1.13943 9.09 113 85 48
0.135963 1.13817 9.08 185 162 137
0.145902 1.13817 9.08 189 166 141
0.155841 1.13817 9.08 172 156 139
0.165597 1.13692 9.07 171 155 138
0.175525 1.13692 9.07 168 155 140
0.185249 1.13567 9.06 168 155 140
0.195166 1.13567 9.06 168 155 140
0.205083 1.13567 9.06 168 155 140
0.215 1.13567 9.06 168 154 142
0.224917 1.13567 9.06 169 155 143
0.234575 1.13441 9.05 167 153 141
0.244481 1.13441 9.05 166 152 140
0.254668 1.13567 9.06 163 149 139
0.264585 1.13567 9.06 162 148 138
0.274502 1.13567 9.06 154 143 132
0.284419 1.13567 9.06 163 152 141
0.294336 1.13567 9.06 163 152 141
0.304253 1.13567 9.06 161 150 139
0.313824 1.13441 9.05 160 148 139
0.32373 1.13441 9.05 159 147 138
0.333636 1.13441 9.05 159 147 138
0.343163 1.13316 9.04 158 146 137
0.353058 1.13316 9.04 156 145 139
0.362953 1.13316 9.04 154 143 137
0.372436 1.13191 9.03 150 141 136
0.38232 1.13191 9.03 150 141 136
0.392204 1.13191 9.03 147 143 144
-0 0 0 164 152 143
-0 0 0 157 145 136
-0 0 0 163 152 139
-0 0 0 165 154 141
-0 0 0 164 153 140
-0 0 0 164 153 140
-0 0 0 161 152 139
-0 0 0 167 158 145
-0 0 0 172 163 150
-0 0 0 159 150 137
-0 0 0 156 150 138
-0.342111 1.18605 9.38 155 149 137
-0.331843 1.18605 9.38 167 156 150
-0.321576 1.18605 9.38 142 131 125
-0.311309 1.18605 9.38 109 92 84
-0.30072 1.18479 9.37 118 101 93
-0.290464 1.18479 9.37 119 97 90
-0.279909 1.18352 9.36 153 131 124
-0.269375 1.18226 9.35 176 160 162
-0.258863 1.181 9.34 168 152 154
-0.248374 1.17973 9.33 98 82 90
-0.238161 1.17973 9.33 117 101 109
-0.227704 1.17847 9.32 165 150 156
-0.217269 1.1772 9.31 161 146 152
-0.206856 1.17594 9.3 155 144 145
-0.196464 1.17467 9.29 157 146 147
-0.186095 1.17341 9.28 161 148 155
-0.175937 1.17341 9.28 163 150 157
-0.165601 1.17214 9.27 159 143 160
-0.155454 1.17214 9.27 160 144 161
-0.14515 1.17088 9.26 145 127 156
-0.135014 1.17088 9.26 125 107 136
-0.124743 1.16962 9.25 115 96 127
-0.114494 1.16835 9.24 110 91 122
-0.104267 1.16709 9.23 107 90 121
-0.094164 1.16709 9.23 99 82 113
-0.0839698 1.16582 9.22 88 74 104
-0.0737974 1.16456 9.21 86 72 102
-0.063647 1.16329 9.2 100 81 107
-0.0535184 1.16203 9.19 98 79 105
-0.043459 1.16203 9.19 97 69 93
-0.0333997 1.16203 9.19 95 67 91
-0.0233149 1.16076 9.18 99 70 78
-0.0132665 1.16076 9.18 95 66 74
-0.00321452 1.1595 9.17 96 69 51
0.00682297 1.1595 9.17 94 67 49
0.0168421 1.15824 9.16 96 67 27
0.0268686 1.15824 9.16 91 62 22
0.0368549 1.15697 9.15 103 68 20
0.0468192 1.15571 9.14 99 64 16
0.0568239 1.15571 9.14 99 58 7
0.0667554 1.15444 9.13 93 52 1
0.076665 1.15318 9.12 100 58 9
0.0866478 1.15318 9.12 148 106 57
0.0966306 1.15318 9.12 158 123 75
0.106496 1.15191 9.11 134 99 51
0.11634 1.15065 9.1 97 71 29
0.126162 1.14938 9.09 116 90 48
0.136112 1.14938 9.09 189 166 141
0.146062 1.14938 9.09 186 163 138
0.155841 1.14812 9.08 180 164 147
0.16578 1.14812 9.08 172 156 139
0.175525 1.14686 9.07 167 154 139
0.185453 1.14686 9.07 168 155 140
0.195166 1.14559 9.06 169 156 141
0.205083 1.14559 9.06 168 155 140
0.215 1.14559 9.06 165 154 141
0.224917 1.14559 9.06 166 155 142
0.234834 1.14559 9.06 167 156 143
0.244751 1.14559 9.06 164 153 140
0.254668 1.14559 9.06 160 149 138
0.264585 1.14559 9.06 161 150 139
0.274502 1.14559 9.06 167 156 145
0.284419 1.14559 9.06 163 152 141
0.294336 1.14559 9.06 163 151 142
0.303918 1.14433 9.05 161 149 140
0.313824 1.14433 9.05 160 148 139
0.32373 1.14433 9.05 159 147 138
0.333267 1.14306 9.04 156 146 137
0.343163 1.14306 9.04 156 146 137
0.353058 1.14306 9.04 156 145 139
0.362953 1.14306 9.04 154 143 137
0.372436 1.1418 9.03 148 141 136
0.38232 1.1418 9.03 146 139 134
0.392204 1.1418 9.03 143 135 140
-0 0 0 149 137 128
-0 0 0 161 149 140
-0 0 0 171 160 147
-0 0 0 165 154 141
-0 0 0 164 153 140
-0 0 0 164 153 140
-0 0 0 162 153 140
-0 0 0 165 156 143
-0 0 0 164 155 144
-0 0 0 158 149 138
-0 0 0 158 149 138
-0.342475 1.1976 9.39 157 148 137
-0.332197 1.1976 9.39 161 152 141
-0.321919 1.1976 9.39 163 154 143
-0.311309 1.19633 9.38 136 119 111
-0.301041 1.19633 9.38 111 94 86
-0.290774 1.19633 9.38 115 96 88
-0.280208 1.19505 9.37 135 116 108
-0.269663 1.19378 9.36 171 153 153
-0.25914 1.1925 9.35 162 144 144
-0.24864 1.19123 9.34 103 92 94
-0.238161 1.18995 9.33 136 125 127
-0.227704 1.18868 9.32 171 160 162
-0.217269 1.1874 9.31 163 152 154
-0.207078 1.1874 9.31 164 153 155
-0.196676 1.18612 9.3 163 152 154
-0.186296 1.18485 9.29 154 140 150
-0.175937 1.18357 9.28 150 136 146
-0.165779 1.18357 9.28 133 115 137
-0.155454 1.1823 9.27 127 109 131
-0.145307 1.1823 9.27 108 81 116
-0.135014 1.18102 9.26 102 75 110
-0.124743 1.17975 9.25 96 70 102
-0.114494 1.17847 9.24 98 72 104
-0.104267 1.1772 9.23 93 69 96
-0.094164 1.1772 9.23 83 59 86
-0.0839698 1.17592 9.22 80 57 80
-0.0737974 1.17465 9.21 80 57 80
-0.063647 1.17337 9.2 85 58 72
-0.0535184 1.1721 9.19 85 58 72
-0.043459 1.1721 9.19 91 60 66
-0.0333997 1.1721 9.19 87 56 62
-0.0233149 1.17082 9.18 90 57 48
-0.0132665 1.17082 9.18 87 54 45
-0.00321452 1.16954 9.17 97 65 33
0.00682297 1.16954 9.17 97 65 33
0.0168421 1.16827 9.16 108 74 28
0.0268686 1.16827 9.16 103 69 23
0.0368549 1.16699 9.15 101 63 11
0.0468705 1.16699 9.15 97 59 7
0.0568239 1.16572 9.14 98 56 2
0.0668285 1.16572 9.14 100 58 4
0.0767491 1.16444 9.13 107 63 9
0.0866478 1.16317 9.12 118 74 20
0.0966306 1.16317 9.12 129 89 35
0.106496 1.16189 9.11 132 92 38
0.116468 1.16189 9.11 109 77 33
0.126301 1.16062 9.1 124 92 48
0.136112 1.15934 9.09 187 165 138
0.145902 1.15807 9.08 181 159 132
0.155841 1.15807 9.08 173 158 138
0.16578 1.15807 9.08 172 157 137
0.175525 1.15679 9.07 167 155 138
0.185249 1.15552 9.06 168 156 139
0.195166 1.15552 9.06 169 156 141
0.205083 1.15552 9.06 169 156 141
0.215 1.15552 9.06 168 155 140
0.224917 1.15552 9.06 168 155 140
0.234834 1.15552 9.06 169 155 143
0.244751 1.15552 9.06 167 153 141
0.254668 1.15552 9.06 160 149 138
0.264585 1.15552 9.06 166 155 144
0.274502 1.15552 9.06 165 154 143
0.284105 1.15424 9.05 164 153 142
0.294012 1.15424 9.05 160 148 139
0.303918 1.15424 9.05 159 147 138
0.313824 1.15424 9.05 160 147 141
0.323372 1.15296 9.04 159 146 140
0.333267 1.15296 9.04 156 145 139
0.342783 1.15169 9.03 157 146 140
0.352667 1.15169 9.03 156 145 139
0.362551 1.15169 9.03 155 144 138
0.372436 1.15169 9.03 152 145 140
0.38232 1.15169 9.03 145 138 133
0.392204 1.15169 9.03 142 137 141
-0 0 0 145 133 124
-0 0 0 150 138 129
-0 0 0 160 149 138
-0 0 0 167 156 145
-0 0 0 165 154 143
-0 0 0 165 154 143
-0 0 0 163 154 143
-0 0 0 161 152 141
-0 0 0 159 150 139
-0 0 0 157 148 137
-0 0 0 157 148 137
-0.34284 1.20918 9.4 157 148 137
-0.332197 1.20789 9.39 156 146 137
-0.322262 1.20918 9.4 164 154 145
-0.311641 1.20789 9.39 169 154 146
-0.301362 1.20789 9.39 116 101 93
-0.290774 1.2066 9.38 106 89 81
-0.280507 1.2066 9.38 114 97 89
-0.269951 1.20532 9.37 147 133 129
-0.259418 1.20403 9.36 169 155 151
-0.248906 1.20274 9.35 143 135 133
-0.238416 1.20146 9.34 160 152 150
-0.227948 1.20017 9.33 165 156 157
-0.217502 1.19888 9.32 165 156 157
-0.207078 1.1976 9.31 148 139 141
-0.196887 1.1976 9.31 137 128 130
-0.186296 1.19503 9.29 123 105 118
-0.176127 1.19503 9.29 130 112 125
-0.165779 1.19374 9.28 123 94 115
-0.155454 1.19245 9.27 101 72 93
-0.145307 1.19245 9.27 95 59 88
-0.135014 1.19117 9.26 91 55 84
-0.124743 1.18988 9.25 93 57 78
-0.114494 1.18859 9.24 80 44 65
-0.10438 1.18859 9.24 76 41 52
-0.094164 1.18731 9.23 80 45 56
-0.0839698 1.18602 9.22 90 55 53
-0.0737974 1.18473 9.21 94 59 57
-0.063647 1.18345 9.2 95 60 44
-0.0535184 1.18216 9.19 98 63 47
-0.043459 1.18216 9.19 106 69 46
-0.0333997 1.18216 9.19 105 68 45
-0.0233149 1.18088 9.18 108 70 31
-0.0132665 1.18088 9.18 106 68 29
-0.00321452 1.17959 9.17 109 74 19
0.00682297 1.17959 9.17 113 78 23
0.0168421 1.1783 9.16 116 80 21
0.0268686 1.1783 9.16 114 78 19
0.0368549 1.17702 9.15 117 79 18
0.0468705 1.17702 9.15 117 79 18
0.0568239 1.17573 9.14 120 79 21
0.0668285 1.17573 9.14 114 73 15
0.0767491 1.17444 9.13 125 79 22
0.0867428 1.17444 9.13 129 83 26
0.0966306 1.17316 9.12 129 87 26
0.106613 1.17316 9.12 133 91 30
0.116468 1.17187 9.11 110 78 27
0.126301 1.17058 9.1 130 98 47
0.136112 1.1693 9.09 186 165 135
0.145902 1.16801 9.08 181 160 130
0.155841 1.16801 9.08 168 155 135
0.16578 1.16801 9.08 169 156 136
0.175525 1.16673 9.07 167 155 138
0.185249 1.16544 9.06 169 157 140
0.195166 1.16544 9.06 169 157 140
0.205083 1.16544 9.06 170 158 141
0.215 1.16544 9.06 166 156 140
0.224917 1.16544 9.06 167 157 141
0.234834 1.16544 9.06 167 156 143
0.244751 1.16544 9.06 165 154 141
0.254668 1.16544 9.06 164 153 142
0.264585 1.16544 9.06 165 154 143
0.274502 1.16544 9.06 164 152 143
0.284105 1.16415 9.05 159 147 138
0.294012 1.16415 9.05 150 137 131
0.303582 1.16287 9.04 159 146 140
0.313477 1.16287 9.04 160 147 141
0.323014 1.16158 9.03 159 146 140
0.332899 1.16158 9.03 156 145 139
0.342783 1.16158 9.03 156 145 139
0.352667 1.16158 9.03 156 144 140
0.362551 1.16158 9.03 155 143 139
0.372023 1.16029 9.02 150 142 140
0.381897 1.16029 9.02 144 136 134
0.39177 1.16029 9.02 136 131 135
-0 0 0 160 148 139
-0 0 0 161 149 140
-0 0 0 160 149 138
-0 0 0 165 154 143
-0 0 0 164 153 142
-0 0 0 161 150 139
-0 0 0 164 155 144
-0 0 0 157 148 137
-0 0 0 157 148 137
-0 0 0 157 148 137
-0 0 0 157 148 137
-0.343205 1.22077 9.41 156 147 136
-0.332905 1.22077 9.41 156 147 136
-0.322262 1.21947 9.4 159 150 139
-0.311972 1.21947 9.4 149 137 128
-0.301683 1.21947 9.4 131 119 110
-0.291084 1.21817 9.39 123 108 100
-0.280806 1.21817 9.39 144 129 121
-0.270239 1.21688 9.38 159 146 140
-0.259695 1.21558 9.37 163 150 144
-0.248906 1.21299 9.35 163 154 149
-0.238416 1.21169 9.34 165 156 151
-0.227948 1.21039 9.33 165 154 155
-0.217502 1.20909 9.32 152 141 142
-0.207301 1.20909 9.32 138 118 125
-0.196887 1.2078 9.31 114 94 101
-0.186296 1.2052 9.29 106 72 86
-0.176127 1.2052 9.29 95 61 75
-0.165779 1.2039 9.28 91 48 63
-0.155621 1.2039 9.28 89 46 61
-0.145307 1.20261 9.27 91 46 54
-0.135014 1.20131 9.26 91 46 54
-0.124743 1.20001 9.25 90 46 45
-0.114494 1.19871 9.24 93 49 48
-0.10438 1.19871 9.24 92 48 38
-0.094164 1.19742 9.23 94 50 40
-0.0839698 1.19612 9.22 97 57 35
-0.0737974 1.19482 9.21 101 61 39
-0.063647 1.19353 9.2 110 70 36
-0.0535184 1.19223 9.19 112 72 38
-0.043459 1.19223 9.19 116 75 30
-0.0333633 1.19093 9.18 114 73 28
-0.0233149 1.19093 9.18 114 75 17
-0.013252 1.18963 9.17 113 74 16
-0.00321452 1.18963 9.17 115 77 11
0.00681552 1.18834 9.16 120 82 16
0.0168421 1.18834 9.16 120 82 14
0.0268393 1.18704 9.15 120 82 14
0.0368549 1.18704 9.15 122 82 14
0.0468705 1.18704 9.15 125 85 17
0.0568239 1.18574 9.14 130 87 20
0.0668285 1.18574 9.14 127 84 17
0.0767491 1.18444 9.13 127 84 17
0.0867428 1.18444 9.13 130 87 20
0.0966306 1.18315 9.12 135 91 22
0.106613 1.18315 9.12 134 90 21
0.116468 1.18185 9.11 107 72 17
0.12644 1.18185 9.11 130 95 40
0.136112 1.17926 9.09 187 167 135
0.145902 1.17796 9.08 180 160 128
0.155841 1.17796 9.08 169 156 136
0.16578 1.17796 9.08 169 156 136
0.175525 1.17666 9.07 167 155 138
0.185453 1.17666 9.07 167 155 138
0.195166 1.17536 9.06 168 155 140
0.205083 1.17536 9.06 169 156 141
0.215 1.17536 9.06 169 156 141
0.224917 1.17536 9.06 170 157 142
0.234834 1.17536 9.06 167 156 143
0.244751 1.17536 9.06 166 155 142
0.254668 1.17536 9.06 165 154 143
0.264585 1.17536 9.06 164 153 142
0.274199 1.17407 9.05 167 157 148
0.284105 1.17407 9.05 165 155 146
0.294012 1.17407 9.05 154 143 137
0.303582 1.17277 9.04 157 146 140
0.31313 1.17147 9.03 158 147 141
0.323014 1.17147 9.03 157 146 140
0.332899 1.17147 9.03 157 146 140
0.342403 1.17017 9.02 157 146 140
0.352277 1.17017 9.02 156 144 140
0.36215 1.17017 9.02 154 142 138
0.372023 1.17017 9.02 146 139 134
0.381897 1.17017 9.02 143 136 131
0.39177 1.17017 9.02 140 136 137
-0 0 0 135 128 118
-0 0 0 165 153 144
-0 0 0 163 151 142
-0 0 0 161 149 140
-0 0 0 164 152 143
-0 0 0 163 152 141
-0 0 0 160 149 138
-0 0 0 159 150 139
-0 0 0 156 147 136
-0 0 0 155 146 135
-0 0 0 156 147 136
-0 0 0 156 147 136
-0.34357 1.23238 9.42 156 147 136
-0.333258 1.23238 9.42 156 147 136
-0.322604 1.23108 9.41 156 147 136
-0.312304 1.23108 9.41 152 143 132
-0.302004 1.23108 9.41 159 150 139
-0.291394 1.22977 9.4 162 152 143
-0.280806 1.22846 9.39 167 157 148
-0.270239 1.22715 9.38 171 159 150
-0.259695 1.22584 9.37 171 159 150
-0.249172 1.22453 9.36 166 153 147
-0.238671 1.22323 9.35 152 139 133
-0.228193 1.22192 9.34 136 117 114
-0.217736 1.22061 9.33 104 85 82
-0.207301 1.2193 9.32 91 60 65
-0.196887 1.21799 9.31 77 46 51
-0.186496 1.21669 9.3 87 43 54
-0.176127 1.21538 9.29 83 39 50
-0.165779 1.21407 9.28 94 46 48
-0.155621 1.21407 9.28 96 48 50
-0.145307 1.21276 9.27 99 48 39
-0.135014 1.21145 9.26 100 49 40
-0.124743 1.21014 9.25 103 55 37
-0.114494 1.20884 9.24 106 58 40
-0.104267 1.20753 9.23 112 65 39
-0.094164 1.20753 9.23 115 68 42
-0.0838787 1.20491 9.21 114 70 35
-0.0737974 1.20491 9.21 115 71 36
-0.063647 1.2036 9.2 115 70 24
-0.0535184 1.20229 9.19 120 75 29
-0.0434117 1.20099 9.18 125 81 25
-0.0333633 1.20099 9.18 123 79 23
-0.0233149 1.20099 9.18 122 82 16
-0.013252 1.19968 9.17 118 78 12
-0.00321452 1.19968 9.17 120 82 9
0.00681552 1.19837 9.16 124 86 13
0.0168237 1.19706 9.15 126 85 13
0.0268393 1.19706 9.15 126 85 13
0.0368549 1.19706 9.15 127 86 14
0.0468705 1.19706 9.15 129 88 16
0.0568239 1.19575 9.14 131 89 15
0.0668285 1.19575 9.14 129 87 13
0.0767491 1.19445 9.13 128 86 12
0.0867428 1.19445 9.13 128 86 12
0.0967365 1.19445 9.13 134 90 14
0.106613 1.19314 9.12 135 91 15
0.116596 1.19314 9.12 107 69 8
0.12644 1.19183 9.11 126 88 27
0.136112 1.18921 9.09 189 167 135
0.146062 1.18921 9.09 182 160 128
0.155841 1.1879 9.08 163 153 131
0.16578 1.1879 9.08 166 156 134
0.175525 1.1866 9.07 166 154 137
0.185453 1.1866 9.07 167 155 138
0.195381 1.1866 9.07 168 155 140
0.205309 1.1866 9.07 169 156 141
0.215237 1.1866 9.07 168 157 144
0.224917 1.18529 9.06 168 157 144
0.234834 1.18529 9.06 167 156 143
0.244751 1.18529 9.06 166 155 142
0.254668 1.18529 9.06 166 155 144
0.264585 1.18529 9.06 166 155 144
0.274199 1.18398 9.05 169 159 150
0.284105 1.18398 9.05 165 155 146
0.293687 1.18267 9.04 158 147 141
0.303246 1.18136 9.03 157 146 140
0.31313 1.18136 9.03 157 146 140
0.323014 1.18136 9.03 157 146 140
0.33253 1.18005 9.02 157 145 141
0.342403 1.18005 9.02 157 145 141
0.352277 1.18005 9.02 154 145 140
0.36215 1.18005 9.02 153 144 139
0.372023 1.18005 9.02 150 143 138
0.381897 1.18005 9.02 151 144 139
0.39177 1.18005 9.02 149 145 146
-0 0 0 147 140 130
-0 0 0 159 149 140
-0 0 0 159 149 140
-0 0 0 163 151 142
-0 0 0 164 152 143
-0 0 0 161 149 140
-0 0 0 159 147 138
-0 0 0 158 146 137
-0 0 0 157 145 136
-0 0 0 155 145 136
-0 0 0 155 145 136
-0.354256 1.24402 9.43 155 145 136
-0.343934 1.24402 9.43 155 145 136
-0.333612 1.24402 9.43 157 147 138
-0.32329 1.24402 9.43 155 145 136
-0.312636 1.2427 9.42 159 149 140
-0.302004 1.24138 9.41 167 157 148
-0.291394 1.24006 9.4 172 160 151
-0.281105 1.24006 9.4 169 157 148
-0.270527 1.23875 9.39 163 148 140
-0.259972 1.23743 9.38 133 118 110
-0.249438 1.23611 9.37 119 97 90
-0.238671 1.23347 9.35 95 73 66
-0.228193 1.23215 9.34 83 51 48
-0.217736 1.23083 9.33 76 44 41
-0.207301 1.22951 9.32 82 42 41
-0.196887 1.22819 9.31 84 44 43
-0.186496 1.22687 9.3 95 47 44
-0.176127 1.22555 9.29 95 47 44
-0.165958 1.22555 9.29 100 50 39
-0.155621 1.22423 9.28 101 51 40
-0.145307 1.22291 9.27 106 57 30
-0.135014 1.2216 9.26 109 60 33
-0.124743 1.22028 9.25 111 62 28
-0.114494 1.21896 9.24 114 65 31
-0.10438 1.21896 9.24 118 70 28
-0.094164 1.21764 9.23 123 75 33
-0.0839698 1.21632 9.22 125 78 32
-0.0737974 1.215 9.21 123 76 30
-0.063647 1.21368 9.2 116 70 21
-0.0535184 1.21236 9.19 117 71 22
-0.0434117 1.21104 9.18 115 73 19
-0.0333633 1.21104 9.18 114 72 18
-0.0232895 1.20972 9.17 120 80 12
-0.013252 1.20972 9.17 122 82 14
-0.00321101 1.2084 9.16 126 86 12
0.00681552 1.2084 9.16 129 89 15
0.0168237 1.20708 9.15 129 88 11
0.0268393 1.20708 9.15 127 86 9
0.0368549 1.20708 9.15 128 88 8
0.0468705 1.20708 9.15 131 91 11
0.0568239 1.20576 9.14 134 91 12
0.0668285 1.20576 9.14 134 91 12
0.0767491 1.20445 9.13 131 88 8
0.0867428 1.20445 9.13 130 87 7
0.0967365 1.20445 9.13 133 88 8
0.106613 1.20313 9.12 133 88 8
0.116596 1.20313 9.12 108 70 2
0.12644 1.20181 9.11 123 85 17
0.136262 1.20049 9.1 187 166 129
0.146062 1.19917 9.09 185 164 127
0.155841 1.19785 9.08 168 156 134
0.16578 1.19785 9.08 167 155 133
0.175719 1.19785 9.08 166 154 137
0.185453 1.19653 9.07 167 155 138
0.195381 1.19653 9.07 168 155 140
0.205309 1.19653 9.07 168 155 140
0.215237 1.19653 9.07 168 154 142
0.225165 1.19653 9.07 168 154 142
0.235093 1.19653 9.07 168 154 142
0.244751 1.19521 9.06 167 153 141
0.254668 1.19521 9.06 163 152 139
0.264585 1.19521 9.06 161 150 137
0.274199 1.19389 9.05 161 150 139
0.284105 1.19389 9.05 160 149 138
0.293687 1.19257 9.04 158 148 139
0.303246 1.19125 9.03 158 148 139
0.31313 1.19125 9.03 157 147 138
0.322657 1.18993 9.02 156 146 137
0.33253 1.18993 9.02 156 145 139
0.342403 1.18993 9.02 157 146 140
0.352277 1.18993 9.02 156 145 139
0.36215 1.18993 9.02 156 145 139
0.372023 1.18993 9.02 143 137 130
0.381897 1.18993 9.02 146 140 133
0.392204 1.19125 9.03 154 150 150
-0 0 0 151 141 132
-0 0 0 156 146 137
-0 0 0 161 151 142
-0 0 0 162 152 143
-0 0 0 162 152 143
-0 0 0 161 151 142
-0 0 0 158 148 139
-0 0 0 160 148 139
-0 0 0 158 146 137
-0 0 0 156 146 137
-0 0 0 156 146 137
-0.354632 1.25568 9.44 156 146 137
-0.344299 1.25568 9.44 156 146 137
-0.333966 1.25568 9.44 164 154 145
-0.32329 1.25435 9.43 169 159 150
-0.312968 1.25435 9.43 174 162 153
-0.302004 1.25169 9.41 165 153 144
-0.291704 1.25169 9.41 153 137 132
-0.281105 1.25036 9.4 124 108 103
-0.270527 1.24903 9.39 95 76 68
-0.259972 1.2477 9.38 66 47 39
-0.249438 1.24637 9.37 67 39 31
-0.238671 1.24371 9.35 69 41 33
-0.228193 1.24238 9.34 81 43 35
-0.217736 1.24105 9.33 80 42 34
-0.207301 1.23972 9.32 86 41 34
-0.196887 1.23839 9.31 86 41 34
-0.186496 1.23706 9.3 99 50 36
-0.176127 1.23573 9.29 99 50 36
-0.165958 1.23573 9.29 101 52 31
-0.155621 1.2344 9.28 103 54 33
-0.145307 1.23307 9.27 107 59 22
-0.13516 1.23307 9.27 109 61 24
-0.124878 1.23174 9.26 113 62 19
-0.114618 1.23041 9.25 116 65 22
-0.10438 1.22908 9.24 120 70 20
-0.094164 1.22775 9.23 124 74 24
-0.0839698 1.22642 9.22 121 71 21
-0.0737974 1.22509 9.21 126 76 26
-0.063647 1.22376 9.2 120 77 31
-0.0535184 1.22243 9.19 127 84 38
-0.043459 1.22243 9.19 132 98 47
