ply
format ascii 1.0
comment Created by Open3D
element vertex 1442
property double x
property double y
property double z
property uchar red
property uchar green
property uchar blue
end_header
1.70066 2.46663 9.73 143 152 151
1.70955 2.46409 9.72 150 159 158
1.72019 2.46409 9.72 148 157 155
1.72905 2.46156 9.71 144 153 151
1.73968 2.46156 9.71 147 156 154
1.74851 2.45902 9.7 147 156 154
1.75913 2.45902 9.7 145 154 152
1.76974 2.45902 9.7 144 153 151
1.78036 2.45902 9.7 147 156 154
1.79098 2.45902 9.7 148 157 155
1.8016 2.45902 9.7 144 155 153
1.81221 2.45902 9.7 146 157 155
1.82283 2.45902 9.7 148 157 155
1.83345 2.45902 9.7 147 156 154
1.84407 2.45902 9.7 147 156 154
1.85468 2.45902 9.7 146 155 153
1.86722 2.46156 9.71 144 153 151
1.87979 2.46409 9.72 146 155 153
1.89043 2.46409 9.72 146 155 153
1.90498 2.46916 9.74 146 155 153
1.91957 2.47423 9.76 146 155 153
1.93421 2.4793 9.78 150 159 157
1.94691 2.48184 9.79 148 159 157
1.96162 2.48691 9.81 146 157 155
1.97437 2.48944 9.82 146 157 155
1.98916 2.49451 9.84 149 160 158
1.99993 2.49451 9.84 149 160 158
2.0107 2.49451 9.84 146 157 155
2.02147 2.49451 9.84 148 157 155
2.03018 2.49198 9.83 147 156 154
2.03886 2.48944 9.82 148 157 155
2.04752 2.48691 9.81 148 157 155
2.05826 2.48691 9.81 150 159 157
2.06478 2.48184 9.79 151 160 158
2.0755 2.48184 9.79 152 161 160
2.08621 2.48184 9.79 148 157 156
2.09907 2.48437 9.8 148 157 156
2.11195 2.48691 9.81 151 160 159
2.12485 2.48944 9.82 151 160 159
2.13995 2.49451 9.84 148 157 156
2.15291 2.49705 9.85 148 157 156
2.16808 2.50212 9.87 148 157 156
2.1811 2.50465 9.88 146 157 156
2.19191 2.50465 9.88 148 159 158
2.2005 2.50212 9.87 148 159 158
2.20682 2.49705 9.85 146 157 156
2.21535 2.49451 9.84 145 156 155
2.2216 2.48944 9.82 146 157 156
2.2278 2.48437 9.8 146 157 156
2.23624 2.48184 9.79 144 155 154
2.24466 2.4793 9.78 145 155 157
2.25306 2.47677 9.77 146 156 158
2.25912 2.4717 9.75 146 157 156
2.26979 2.4717 9.75 145 156 155
2.28047 2.4717 9.75 145 156 155
2.28644 2.46663 9.73 144 155 154
2.29709 2.46663 9.73 144 155 154
2.30537 2.46409 9.72 143 154 153
2.31124 2.45902 9.7 145 156 155
2.31947 2.45649 9.69 144 155 154
2.32767 2.45395 9.68 144 155 154
2.33585 2.45142 9.67 144 155 154
2.34401 2.44888 9.66 144 155 154
2.35214 2.44635 9.65 144 155 154
2.36026 2.44381 9.64 144 154 156
2.36835 2.44128 9.63 144 154 156
2.37642 2.43874 9.62 147 159 161
2.38695 2.43874 9.62 141 153 155
2.39748 2.43874 9.62 141 153 155
2.41051 2.44128 9.63 142 154 156
2.42608 2.44635 9.65 140 155 156
2.4417 2.45142 9.67 137 152 153
2.45482 2.45395 9.68 140 155 156
2.47051 2.45902 9.7 140 155 156
2.48368 2.46156 9.71 138 153 154
2.49688 2.46409 9.72 138 153 154
2.5101 2.46663 9.73 137 152 153
2.52593 2.4717 9.75 139 154 155
2.5392 2.47423 9.76 142 158 156
2.54989 2.47423 9.76 145 161 159
2.56057 2.47423 9.76 138 154 151
2.57125 2.47423 9.76 140 156 153
2.58458 2.47677 9.77 142 155 153
2.59793 2.4793 9.78 132 145 143
2.60864 2.4793 9.78 115 128 126
2.61934 2.4793 9.78 106 119 117
2.63005 2.4793 9.78 105 116 114
2.64075 2.4793 9.78 107 118 116
2.65417 2.48184 9.79 106 117 116
2.66489 2.48184 9.79 103 114 113
2.67834 2.48437 9.8 100 111 110
2.69181 2.48691 9.81 100 111 110
2.7053 2.48944 9.82 103 112 111
2.71881 2.49198 9.83 102 111 110
2.73235 2.49451 9.84 103 112 111
2.7487 2.49958 9.86 104 113 112
2.76229 2.50212 9.87 103 111 113
2.77871 2.50719 9.89 101 109 111
2.79236 2.50972 9.9 100 108 110
2.80603 2.51226 9.91 100 108 110
2.82256 2.51733 9.93 100 108 110
2.83343 2.51733 9.93 97 105 107
2.84716 2.51986 9.94 96 105 103
2.85804 2.51986 9.94 96 105 103
-1.12117 2.59949 10.21 106 109 112
-1.11108 2.60204 10.22 125 128 131
-1.09989 2.60204 10.22 120 124 124
-1.09083 2.60713 10.24 113 117 117
-1.08068 2.60968 10.25 112 116 115
-1.06946 2.60968 10.25 111 115 114
-1.05824 2.60968 10.25 111 112 109
-1.04804 2.61222 10.26 104 105 102
-1.0358 2.60968 10.25 118 117 114
-1.02458 2.60968 10.25 120 119 116
-1.01237 2.60713 10.24 119 118 115
-1.00116 2.60713 10.24 119 118 115
-0.988989 2.60458 10.23 118 119 116
-0.976835 2.60204 10.22 119 120 117
-0.963759 2.59695 10.2 121 122 119
-0.952594 2.59695 10.2 123 124 121
-0.939583 2.59185 10.18 119 124 120
-0.926616 2.58676 10.16 118 123 119
-0.914594 2.58422 10.15 116 121 117
-0.901703 2.57912 10.13 115 120 116
-0.889736 2.57658 10.12 116 121 117
-0.87779 2.57403 10.11 118 123 119
-0.865009 2.56894 10.09 119 119 119
-0.853118 2.56639 10.08 118 118 118
-0.840414 2.5613 10.06 114 117 120
-0.827754 2.55621 10.04 107 110 113
-0.81595 2.55366 10.03 137 141 146
-0.804169 2.55112 10.02 157 161 166
-0.791618 2.54603 10 153 158 161
-0.779891 2.54348 9.99 155 160 163
-0.768186 2.54093 9.98 154 160 160
-0.755745 2.53584 9.96 155 161 161
-0.744842 2.53584 9.96 155 161 161
-0.732466 2.53075 9.94 154 160 160
-0.72086 2.5282 9.93 155 161 161
-0.708561 2.52311 9.91 156 162 162
-0.697009 2.52057 9.9 156 162 162
-0.684786 2.51547 9.88 155 161 161
-0.672607 2.51038 9.86 154 160 160
-0.661143 2.50784 9.85 154 160 160
-0.649041 2.50274 9.83 155 164 162
-0.637632 2.5002 9.82 154 163 161
-0.625606 2.49511 9.8 152 161 159
-0.614252 2.49256 9.79 152 161 159
-0.602919 2.49001 9.78 149 156 152
0.427941 2.38817 9.38 100 107 111
0.438208 2.38817 9.38 105 112 116
0.449432 2.39326 9.4 101 112 116
0.460699 2.39836 9.42 103 114 118
0.47201 2.40345 9.44 105 116 120
0.483365 2.40854 9.46 101 112 116
0.495808 2.41873 9.5 99 110 114
0.507805 2.42636 9.53 103 114 118
0.520411 2.43655 9.57 103 114 118
0.533106 2.44673 9.61 104 115 119
0.545888 2.45692 9.65 105 116 120
0.557604 2.46201 9.67 101 112 116
0.569364 2.4671 9.69 104 115 119
0.581167 2.47219 9.71 106 117 121
0.593015 2.47728 9.73 106 117 121
0.603665 2.47728 9.73 106 117 121
0.614316 2.47728 9.73 105 116 120
0.624966 2.47728 9.73 103 114 118
0.635617 2.47728 9.73 96 107 111
0.645603 2.47474 9.72 106 117 121
0.656243 2.47474 9.72 106 117 121
0.666882 2.47474 9.72 105 116 120
0.677522 2.47474 9.72 110 125 126
0.688161 2.47474 9.72 110 125 126
0.698082 2.47219 9.71 118 133 134
0.70944 2.47474 9.72 113 128 129
0.72008 2.47474 9.72 110 125 126
0.730719 2.47474 9.72 105 120 121
0.741359 2.47474 9.72 106 121 122
0.752772 2.47728 9.73 110 125 126
0.763422 2.47728 9.73 106 121 122
0.774073 2.47728 9.73 108 123 124
0.78553 2.47983 9.74 112 127 128
0.796191 2.47983 9.74 111 126 127
0.806024 2.47728 9.73 108 123 124
0.817514 2.47983 9.74 115 130 131
0.828175 2.47983 9.74 116 131 132
0.838837 2.47983 9.74 115 130 131
0.848626 2.47728 9.73 116 131 132
0.859277 2.47728 9.73 113 128 129
0.869927 2.47728 9.73 113 128 129
0.880577 2.47728 9.73 113 128 129
0.890312 2.47474 9.72 116 131 132
0.900951 2.47474 9.72 116 131 132
0.910653 2.47219 9.71 117 129 131
0.920333 2.46965 9.7 115 127 129
0.93095 2.46965 9.7 117 129 131
0.940597 2.4671 9.69 117 129 131
0.951204 2.4671 9.69 118 130 132
0.960818 2.46455 9.68 118 130 132
0.971414 2.46455 9.68 118 130 132
0.98201 2.46455 9.68 118 130 132
0.992605 2.46455 9.68 118 130 132
1.0032 2.46455 9.68 119 131 133
1.0138 2.46455 9.68 118 131 130
1.02545 2.4671 9.69 118 131 130
1.03713 2.46965 9.7 120 133 132
1.04882 2.47219 9.71 119 132 131
1.06054 2.47474 9.72 118 131 130
1.07339 2.47983 9.74 120 133 132
1.08516 2.48238 9.75 122 135 134
1.09696 2.48492 9.76 122 135 134
1.10878 2.48747 9.77 124 137 136
1.12062 2.49001 9.78 126 139 138
1.13248 2.49256 9.79 124 137 136
1.14319 2.49256 9.79 122 135 134
1.15391 2.49256 9.79 122 135 134
1.16344 2.49001 9.78 124 137 136
1.17414 2.49001 9.78 125 138 137
1.18242 2.48492 9.76 125 138 137
1.19189 2.48238 9.75 124 137 136
1.20256 2.48238 9.75 121 134 133
1.21199 2.47983 9.74 121 134 133
1.22265 2.47983 9.74 122 135 134
1.23204 2.47728 9.73 121 134 133
1.24269 2.47728 9.73 122 135 134
1.25463 2.47983 9.74 124 137 136
1.26659 2.48238 9.75 124 137 136
1.27726 2.48238 9.75 125 138 137
1.28794 2.48238 9.75 128 141 140
1.29994 2.48492 9.76 129 140 139
1.31062 2.48492 9.76 130 141 140
1.32131 2.48492 9.76 128 139 138
1.33063 2.48238 9.75 127 138 137
1.3413 2.48238 9.75 134 145 144
1.35197 2.48238 9.75 131 142 141
1.36264 2.48238 9.75 130 141 140
1.37191 2.47983 9.74 131 142 141
1.38257 2.47983 9.74 131 142 141
1.3918 2.47728 9.73 133 144 143
1.40245 2.47728 9.73 136 147 146
1.41165 2.47474 9.72 137 148 147
1.42375 2.47728 9.73 135 146 145
1.4344 2.47728 9.73 142 153 152
1.44357 2.47474 9.72 141 152 151
1.45421 2.47474 9.72 143 154 153
1.46635 2.47728 9.73 143 154 153
1.477 2.47728 9.73 143 154 153
1.48918 2.47983 9.74 143 154 153
1.49984 2.47983 9.74 145 156 155
1.51206 2.48238 9.75 141 151 153
1.52273 2.48238 9.75 143 153 155
1.53497 2.48492 9.76 142 152 154
1.54566 2.48492 9.76 142 152 154
1.55634 2.48492 9.76 142 152 154
1.56702 2.48492 9.76 142 152 154
1.57771 2.48492 9.76 141 151 153
1.58839 2.48492 9.76 140 150 152
1.59744 2.48238 9.75 140 150 152
1.60811 2.48238 9.75 141 151 153
1.61878 2.48238 9.75 141 151 153
1.62778 2.47983 9.74 141 151 153
1.63676 2.47728 9.73 140 150 152
1.64741 2.47728 9.73 142 152 154
1.65636 2.47474 9.72 143 154 153
1.667 2.47474 9.72 143 154 153
1.67591 2.47219 9.71 136 145 144
1.6848 2.46965 9.7 145 154 153
1.69542 2.46965 9.7 147 156 155
1.70604 2.46965 9.7 148 157 156
1.71488 2.4671 9.69 146 155 154
1.72549 2.4671 9.69 144 153 152
1.7361 2.4671 9.69 145 154 152
1.7449 2.46455 9.68 145 154 152
1.7555 2.46455 9.68 146 155 153
1.76609 2.46455 9.68 151 160 158
1.77669 2.46455 9.68 150 159 157
1.78729 2.46455 9.68 148 157 155
1.79788 2.46455 9.68 145 154 152
1.80848 2.46455 9.68 147 156 154
1.81907 2.46455 9.68 147 156 154
1.82967 2.46455 9.68 146 155 153
1.84026 2.46455 9.68 147 156 154
1.85086 2.46455 9.68 147 156 154
1.86146 2.46455 9.68 147 153 152
1.87205 2.46455 9.68 148 154 153
1.88459 2.4671 9.69 148 154 153
1.89715 2.46965 9.7 149 155 154
1.91171 2.47474 9.72 147 156 154
1.92432 2.47728 9.73 148 157 155
1.93696 2.47983 9.74 148 157 155
1.94962 2.48238 9.75 147 156 154
1.96432 2.48747 9.77 151 160 158
1.97703 2.49001 9.78 150 159 157
1.98977 2.49256 9.79 150 159 157
2.00049 2.49256 9.79 150 159 157
2.0112 2.49256 9.79 148 157 155
2.01985 2.49001 9.78 147 156 154
2.02848 2.48747 9.77 147 156 154
2.03918 2.48747 9.77 147 156 154
2.04777 2.48492 9.76 146 155 153
2.05846 2.48492 9.76 146 155 153
2.06914 2.48492 9.76 150 159 158
2.07982 2.48492 9.76 148 157 156
2.09051 2.48492 9.76 145 154 153
2.10119 2.48492 9.76 142 151 150
2.1162 2.49001 9.78 150 158 160
2.13343 2.49765 9.81 145 153 155
2.14417 2.49765 9.81 148 157 156
2.1571 2.5002 9.82 147 156 155
2.17006 2.50274 9.83 148 157 156
2.1786 2.5002 9.82 150 159 158
2.18712 2.49765 9.81 148 159 158
0 0 0 146 157 156
2.20184 2.49001 9.78 145 156 155
2.20802 2.48492 9.76 149 160 159
2.21643 2.48238 9.75 150 160 162
2.22482 2.47983 9.74 146 156 158
2.23319 2.47728 9.73 143 153 155
2.24153 2.47474 9.72 144 154 156
2.25217 2.47474 9.72 146 157 156
2.26048 2.47219 9.71 146 157 156
2.27111 2.47219 9.71 146 157 156
2.27939 2.46965 9.7 145 156 155
2.28765 2.4671 9.69 143 154 153
2.29825 2.4671 9.69 143 154 153
2.30648 2.46455 9.68 146 157 156
2.31228 2.45946 9.66 146 157 156
2.32045 2.45692 9.65 145 156 155
2.3286 2.45437 9.64 145 156 155
2.3343 2.44928 9.62 145 156 155
2.34483 2.44928 9.62 146 157 156
2.35291 2.44673 9.61 145 156 155
2.36097 2.44419 9.6 144 155 154
2.36901 2.44164 9.59 148 159 158
2.37951 2.44164 9.59 145 156 155
2.39 2.44164 9.59 143 156 155
2.40551 2.44673 9.61 142 155 154
2.42105 2.45182 9.63 141 153 155
2.43412 2.45437 9.64 138 150 152
2.44974 2.45946 9.66 136 151 152
2.46541 2.46455 9.68 138 153 154
2.47857 2.4671 9.69 138 153 154
2.49174 2.46965 9.7 137 152 153
2.50752 2.47474 9.72 144 159 160
2.52075 2.47728 9.73 141 156 157
2.534 2.47983 9.74 140 156 153
2.54466 2.47983 9.74 134 150 147
2.55795 2.48238 9.75 130 147 141
2.56862 2.48238 9.75 117 134 128
2.58194 2.48492 9.76 109 127 118
2.59262 2.48492 9.76 102 120 111
2.60597 2.48747 9.77 101 114 106
2.61667 2.48747 9.77 94 107 99
2.62736 2.48747 9.77 96 108 103
2.64075 2.49001 9.78 100 112 107
2.65146 2.49001 9.78 102 113 111
2.66216 2.49001 9.78 100 111 109
2.6756 2.49256 9.79 99 110 109
2.68906 2.49511 9.8 98 109 108
2.70254 2.49765 9.81 95 106 105
2.71605 2.5002 9.82 98 109 108
2.73235 2.50529 9.84 102 111 110
2.74591 2.50784 9.85 103 112 111
2.76229 2.51293 9.87 103 112 111
2.7759 2.51547 9.88 101 110 109
2.79236 2.52057 9.9 100 109 108
2.80603 2.52311 9.91 100 109 108
2.81972 2.52566 9.92 98 107 106
2.83343 2.5282 9.93 96 105 104
2.8443 2.5282 9.93 95 104 103
2.85804 2.53075 9.94 98 107 106
-1.10673 2.60301 10.18 88 90 95
-1.09666 2.60556 10.19 108 108 109
-1.08657 2.60812 10.2 123 123 124
-1.07541 2.60812 10.2 114 118 117
-1.06424 2.60812 10.2 111 115 114
-1.05411 2.61068 10.21 112 113 110
-1.04293 2.61068 10.21 114 115 112
-1.03176 2.61068 10.21 119 118 115
-1.02058 2.61068 10.21 120 119 116
-1.00842 2.60812 10.2 120 119 116
-0.998231 2.61068 10.21 119 118 115
-0.986089 2.60812 10.2 119 118 115
-0.973968 2.60556 10.19 119 118 115
-0.961869 2.60301 10.18 118 119 116
-0.950726 2.60301 10.18 122 123 120
-0.937737 2.59789 10.16 121 122 119
-0.925704 2.59533 10.15 119 120 117
-0.913693 2.59278 10.14 115 120 116
-0.901703 2.59022 10.13 115 120 116
-0.888857 2.58511 10.11 119 120 117
-0.876922 2.58255 10.1 118 119 116
-0.865009 2.57999 10.09 118 118 118
-0.853118 2.57744 10.08 121 121 121
-0.840414 2.57232 10.06 120 124 123
-0.827754 2.56721 10.04 118 122 121
-0.81595 2.56465 10.03 112 115 118
-0.804169 2.56209 10.02 134 137 140
-0.792409 2.55954 10.01 146 145 149
-0.779891 2.55442 9.99 168 167 171
-0.768186 2.55187 9.98 165 169 169
-0.755745 2.54675 9.96 157 161 161
-0.744094 2.5442 9.95 156 160 160
-0.731729 2.53908 9.93 156 160 160
-0.719408 2.53397 9.91 156 160 160
-0.707846 2.53141 9.9 159 163 163
-0.695601 2.5263 9.88 159 165 165
-0.684093 2.52374 9.87 156 162 162
-0.671925 2.51863 9.85 155 161 161
-0.659801 2.51351 9.83 154 160 160
-0.648381 2.51095 9.82 154 163 162
-0.636983 2.5084 9.81 153 162 161
-0.624968 2.50328 9.79 151 160 158
-0.613624 2.50073 9.78 151 160 158
-0.602303 2.49817 9.77 157 164 160
0.417228 2.39589 9.37 113 119 119
0.427941 2.39845 9.38 112 121 120
0.438675 2.401 9.39 112 121 120
0.44991 2.40612 9.41 106 117 116
0.461188 2.41123 9.43 107 118 117
0.47251 2.41635 9.45 106 118 120
0.484387 2.42402 9.48 104 116 118
0.496329 2.43169 9.51 104 116 118
0.508338 2.43936 9.54 105 117 119
0.520955 2.44959 9.58 106 117 121
0.533106 2.45726 9.61 106 117 121
0.545322 2.46493 9.64 111 122 126
0.557027 2.47004 9.66 118 129 133
0.568776 2.47516 9.68 112 123 127
0.580569 2.48027 9.7 110 121 125
0.591187 2.48027 9.7 110 121 125
0.602425 2.48283 9.71 113 124 128
0.613053 2.48283 9.71 113 124 128
0.623039 2.48027 9.7 114 125 129
0.633657 2.48027 9.7 112 123 127
0.64361 2.47771 9.69 113 124 128
0.654217 2.47771 9.69 114 125 129
0.664824 2.47771 9.69 114 125 129
0.674734 2.47516 9.68 112 123 127
0.686037 2.47771 9.69 114 125 129
0.696644 2.47771 9.69 112 127 128
0.707251 2.47771 9.69 113 128 129
0.717857 2.47771 9.69 119 134 135
0.728464 2.47771 9.69 118 133 134
0.739833 2.48027 9.7 110 125 126
0.751225 2.48283 9.71 110 125 126
0.762638 2.48538 9.72 111 126 127
0.773277 2.48538 9.72 118 133 134
0.783917 2.48538 9.72 117 132 133
0.794556 2.48538 9.72 117 132 133
0.805196 2.48538 9.72 115 130 131
0.815835 2.48538 9.72 116 131 132
0.826475 2.48538 9.72 116 131 132
0.837114 2.48538 9.72 118 133 134
0.847754 2.48538 9.72 118 133 134
0.858393 2.48538 9.72 117 132 133
0.869033 2.48538 9.72 116 131 132
0.878767 2.48283 9.71 120 135 136
0.889396 2.48283 9.71 119 134 135
0.899098 2.48027 9.7 118 133 134
0.909715 2.48027 9.7 117 132 133
0.919384 2.47771 9.69 118 133 134
0.929991 2.47771 9.69 120 132 134
0.939627 2.47516 9.68 119 131 133
0.949241 2.4726 9.67 119 131 133
0.958833 2.47004 9.66 119 131 133
0.969407 2.47004 9.66 119 131 133
0.979981 2.47004 9.66 120 132 134
0.990555 2.47004 9.66 120 132 134
1.00113 2.47004 9.66 119 131 133
1.0117 2.47004 9.66 119 131 133
1.02333 2.4726 9.67 121 133 135
1.03499 2.47516 9.68 122 135 134
1.04666 2.47771 9.69 122 135 134
1.05727 2.47771 9.69 121 134 133
1.07008 2.48283 9.71 122 135 134
1.08182 2.48538 9.72 124 137 136
1.09359 2.48794 9.73 122 135 134
1.10424 2.48794 9.73 125 138 137
1.11718 2.49306 9.75 126 139 138
1.12785 2.49306 9.75 127 140 139
1.13852 2.49306 9.75 122 135 134
1.1492 2.49306 9.75 121 134 133
1.15987 2.49306 9.75 122 135 134
1.16814 2.48794 9.73 124 137 136
1.17758 2.48538 9.72 122 135 134
1.18822 2.48538 9.72 122 135 134
1.19886 2.48538 9.72 124 137 136
1.20825 2.48283 9.71 128 141 140
1.21763 2.48027 9.7 122 135 134
1.22824 2.48027 9.7 122 135 134
1.23886 2.48027 9.7 125 138 137
1.25077 2.48283 9.71 125 138 137
1.26269 2.48538 9.72 125 138 137
1.27333 2.48538 9.72 126 139 138
1.2853 2.48794 9.73 128 141 140
1.29595 2.48794 9.73 130 141 140
1.30794 2.4905 9.74 130 141 140
1.3186 2.4905 9.74 130 141 140
1.3279 2.48794 9.73 129 140 139
1.33717 2.48538 9.72 134 145 144
1.34781 2.48538 9.72 135 146 145
1.35845 2.48538 9.72 134 145 144
1.36768 2.48283 9.71 135 146 145
1.37689 2.48027 9.7 135 146 145
1.38751 2.48027 9.7 138 149 148
1.39668 2.47771 9.69 141 152 151
1.40729 2.47771 9.69 142 153 152
1.4179 2.47771 9.69 142 153 152
1.4285 2.47771 9.69 141 152 151
1.43911 2.47771 9.69 140 151 150
1.45121 2.48027 9.7 141 152 151
1.46183 2.48027 9.7 143 154 153
1.47397 2.48283 9.71 144 155 154
1.4846 2.48283 9.71 144 155 154
1.49676 2.48538 9.72 144 155 154
1.50895 2.48794 9.73 142 153 152
1.51961 2.48794 9.73 142 153 152
1.53183 2.4905 9.74 140 150 152
1.54249 2.4905 9.74 141 151 153
1.55315 2.4905 9.74 142 152 154
1.56221 2.48794 9.73 140 150 152
1.57286 2.48794 9.73 140 150 152
1.58351 2.48794 9.73 140 150 152
1.59252 2.48538 9.72 141 151 153
1.60316 2.48538 9.72 141 151 153
1.61214 2.48283 9.71 140 150 152
1.62277 2.48283 9.71 140 150 152
1.63171 2.48027 9.7 140 150 152
1.64064 2.47771 9.69 141 151 153
1.65124 2.47771 9.69 142 153 152
1.66185 2.47771 9.69 142 153 152
1.67073 2.47516 9.68 138 149 148
1.68133 2.47516 9.68 142 153 152
1.69018 2.4726 9.67 144 155 154
1.70076 2.4726 9.67 145 156 155
1.70958 2.47004 9.66 146 155 154
1.72015 2.47004 9.66 145 154 153
1.73072 2.47004 9.66 144 153 152
1.7413 2.47004 9.66 143 152 151
1.75187 2.47004 9.66 143 152 151
1.76062 2.46749 9.65 146 155 154
1.77118 2.46749 9.65 147 156 155
1.78175 2.46749 9.65 145 154 153
1.79231 2.46749 9.65 145 154 153
1.80287 2.46749 9.65 147 156 155
1.81343 2.46749 9.65 147 156 155
1.824 2.46749 9.65 147 156 155
1.83456 2.46749 9.65 148 157 155
1.84512 2.46749 9.65 147 156 154
1.85569 2.46749 9.65 148 154 153
1.86625 2.46749 9.65 149 155 154
1.87876 2.47004 9.66 148 157 155
1.88933 2.47004 9.66 148 157 155
1.90384 2.47516 9.68 147 156 154
1.91641 2.47771 9.69 148 157 155
1.92702 2.47771 9.69 146 155 153
1.93962 2.48027 9.7 147 156 154
1.95426 2.48538 9.72 153 162 160
1.9649 2.48538 9.72 147 156 154
1.97757 2.48794 9.73 150 159 157
1.98823 2.48794 9.73 151 160 158
1.99888 2.48794 9.73 150 159 157
2.00953 2.48794 9.73 147 156 154
2.0181 2.48538 9.72 146 155 153
2.02874 2.48538 9.72 147 156 154
2.03938 2.48538 9.72 146 155 153
2.04791 2.48283 9.71 146 155 153
2.05854 2.48283 9.71 151 160 159
2.06917 2.48283 9.71 148 157 156
2.0798 2.48283 9.71 146 155 154
2.09258 2.48538 9.72 144 153 152
2.10322 2.48538 9.72 142 151 150
2.11821 2.4905 9.74 145 154 153
2.12887 2.4905 9.74 148 157 156
2.14173 2.49306 9.75 147 156 155
2.1524 2.49306 9.75 147 156 155
2.16307 2.49306 9.75 147 156 155
2.17151 2.4905 9.74 146 155 154
0 0 0 146 155 154
2.18833 2.48538 9.72 145 155 157
2.19445 2.48027 9.7 149 159 161
2.20279 2.47771 9.69 150 160 162
2.2134 2.47771 9.69 148 158 160
2.22401 2.47771 9.69 144 154 156
2.23461 2.47771 9.69 144 154 156
2.2429 2.47516 9.68 145 156 155
2.2535 2.47516 9.68 146 157 156
2.26409 2.47516 9.68 146 157 156
2.27234 2.4726 9.67 145 156 155
2.28292 2.4726 9.67 145 156 155
2.29114 2.47004 9.66 145 156 155
2.29933 2.46749 9.65 146 157 156
2.3051 2.46237 9.63 146 157 156
2.31324 2.45981 9.62 146 157 156
2.32135 2.45726 9.61 145 156 155
2.33187 2.45726 9.61 146 157 156
2.33752 2.45214 9.59 145 156 155
2.34801 2.45214 9.59 145 156 155
2.35605 2.44959 9.58 144 155 154
2.36407 2.44703 9.57 144 155 154
2.37703 2.44959 9.58 143 154 153
2.39 2.45214 9.59 141 154 153
2.40551 2.45726 9.61 141 154 153
2.41854 2.45981 9.62 141 153 155
2.4316 2.46237 9.63 139 151 153
2.44721 2.46749 9.65 138 150 152
2.46286 2.4726 9.67 136 148 150
2.47857 2.47771 9.69 135 147 149
2.49174 2.48027 9.7 135 147 149
2.50494 2.48283 9.71 141 154 153
2.51816 2.48538 9.72 132 145 144
2.5314 2.48794 9.73 122 138 135
2.54466 2.4905 9.74 115 131 128
2.5527 2.48794 9.73 99 116 110
2.56598 2.4905 9.74 104 121 115
2.57929 2.49306 9.75 103 122 111
2.58996 2.49306 9.75 99 118 107
2.6033 2.49561 9.76 104 120 110
2.61399 2.49561 9.76 100 116 106
2.62467 2.49561 9.76 98 113 105
2.63535 2.49561 9.76 99 114 106
2.64875 2.49817 9.77 99 114 106
2.66216 2.50073 9.78 97 112 104
2.67287 2.50073 9.78 96 109 107
2.68632 2.50328 9.79 94 107 105
2.70254 2.5084 9.81 96 107 105
2.71605 2.51095 9.82 98 109 107
2.72957 2.51351 9.83 98 109 108
2.74591 2.51863 9.85 100 111 110
2.76229 2.52374 9.87 100 111 110
2.7759 2.5263 9.88 99 110 109
2.79236 2.53141 9.9 96 107 106
2.80603 2.53397 9.91 96 107 106
2.82256 2.53908 9.93 95 106 105
2.83343 2.53908 9.93 93 104 103
2.8443 2.53908 9.93 92 103 102
2.85804 2.54164 9.94 95 106 105
-1.08231 2.60902 10.16 110 108 109
-1.07119 2.60902 10.16 123 121 121
-1.06111 2.61159 10.17 125 123 123
-1.05101 2.61416 10.18 119 118 115
-1.03987 2.61416 10.18 116 115 112
-1.02873 2.61416 10.18 118 117 114
-1.01758 2.61416 10.18 119 118 115
-1.00644 2.61416 10.18 121 118 115
-0.995298 2.61416 10.18 121 118 115
-0.984155 2.61416 10.18 119 118 115
-0.972056 2.61159 10.17 120 119 116
-0.959979 2.60902 10.16 121 122 119
-0.948858 2.60902 10.16 122 123 120
-0.936814 2.60645 10.15 122 123 120
-0.925704 2.60645 10.15 119 120 117
-0.912792 2.60132 10.13 118 119 116
-0.900813 2.59875 10.12 118 119 116
-0.888857 2.59618 10.11 119 120 117
-0.876922 2.59361 10.1 121 122 119
-0.865009 2.59104 10.09 121 122 119
-0.853118 2.58848 10.08 122 123 120
-0.840414 2.58334 10.06 122 122 122
-0.828578 2.58077 10.05 122 122 122
-0.816764 2.57821 10.04 118 118 118
-0.804169 2.57307 10.02 122 122 122
-0.792409 2.5705 10.01 127 125 126
-0.779891 2.56537 9.99 141 139 140
-0.768186 2.5628 9.98 154 152 153
-0.754986 2.55509 9.95 162 160 161
-0.743347 2.55253 9.94 159 163 163
-0.730256 2.54482 9.91 157 161 161
-0.718682 2.54225 9.9 156 160 160
-0.706416 2.53712 9.88 158 162 162
-0.694897 2.53455 9.87 159 165 164
-0.682707 2.52941 9.85 157 163 162
-0.671243 2.52685 9.84 152 161 159
-0.65913 2.52171 9.82 151 160 158
-0.647721 2.51914 9.81 152 161 159
-0.635684 2.51401 9.79 152 161 159
-0.624329 2.51144 9.78 151 160 158
-0.612997 2.50887 9.77 150 159 157
-0.601686 2.5063 9.76 156 163 159
0.417228 2.40615 9.37 120 126 126
0.427941 2.40872 9.38 116 125 124
0.438675 2.41129 9.39 112 121 120
0.44991 2.41643 9.41 109 120 119
0.461677 2.42413 9.44 110 121 120
0.47301 2.42927 9.46 107 120 119
0.484898 2.43697 9.49 105 118 117
0.496329 2.44211 9.51 107 119 121
0.508338 2.44981 9.54 108 120 122
0.520955 2.46008 9.58 108 120 122
0.533106 2.46778 9.61 108 120 122
0.544756 2.47292 9.63 110 121 125
0.556451 2.47806 9.65 110 121 125
0.567601 2.48062 9.66 110 121 125
0.578773 2.48319 9.67 113 124 128
0.589968 2.48576 9.68 115 126 130
0.600563 2.48576 9.68 115 126 130
0.611159 2.48576 9.68 114 125 129
0.621755 2.48576 9.68 114 125 129
0.631697 2.48319 9.67 113 124 128
0.641618 2.48062 9.66 112 123 127
0.652192 2.48062 9.66 112 123 127
0.662766 2.48062 9.66 114 125 129
0.672642 2.47806 9.65 113 125 127
0.683205 2.47806 9.65 114 126 128
0.694487 2.48062 9.66 112 127 128
0.705061 2.48062 9.66 115 130 131
0.715635 2.48062 9.66 116 131 132
0.72696 2.48319 9.67 117 132 133
0.738308 2.48576 9.68 117 132 133
0.748904 2.48576 9.68 118 133 134
0.760284 2.48833 9.69 118 133 134
0.770891 2.48833 9.69 117 132 133
0.781497 2.48833 9.69 117 132 133
0.792104 2.48833 9.69 117 132 133
0.802711 2.48833 9.69 118 133 134
0.813317 2.48833 9.69 122 137 138
0.823924 2.48833 9.69 121 133 135
0.834531 2.48833 9.69 121 133 135
0.845137 2.48833 9.69 121 133 135
0.855744 2.48833 9.69 121 133 135
0.866351 2.48833 9.69 119 134 135
0.876957 2.48833 9.69 120 135 136
0.887564 2.48833 9.69 122 137 138
0.898171 2.48833 9.69 120 135 136
0.908777 2.48833 9.69 119 134 135
0.918435 2.48576 9.68 119 134 135
0.928071 2.48319 9.67 118 133 134
0.937685 2.48062 9.66 117 132 133
0.947278 2.47806 9.65 117 132 133
0.95784 2.47806 9.65 119 134 135
0.9674 2.47549 9.64 120 132 134
0.977952 2.47549 9.64 120 132 134
0.987478 2.47292 9.63 120 132 134
0.998019 2.47292 9.63 120 132 134
1.00856 2.47292 9.63 119 131 133
1.02016 2.47549 9.64 121 133 135
1.03178 2.47806 9.65 122 135 134
1.04342 2.48062 9.66 125 138 137
1.05509 2.48319 9.67 126 139 138
1.06678 2.48576 9.68 125 138 137
1.07848 2.48833 9.69 124 137 136
1.08909 2.48833 9.69 124 137 136
1.10083 2.4909 9.7 124 137 136
1.11145 2.4909 9.7 124 137 136
1.12322 2.49346 9.71 124 137 136
1.13385 2.49346 9.71 124 137 136
1.14448 2.49346 9.71 125 138 137
1.15392 2.4909 9.7 124 137 136
1.16454 2.4909 9.7 124 137 136
1.17394 2.48833 9.69 124 137 136
1.18455 2.48833 9.69 123 139 137
1.19516 2.48833 9.69 129 145 143
1.20452 2.48576 9.68 125 141 139
1.21512 2.48576 9.68 123 139 137
1.22571 2.48576 9.68 120 136 134
1.23631 2.48576 9.68 124 140 138
1.2469 2.48576 9.68 133 149 147
1.2588 2.48833 9.69 124 140 138
1.27071 2.4909 9.7 127 140 139
1.28133 2.4909 9.7 128 141 140
1.29328 2.49346 9.71 129 142 141
1.30391 2.49346 9.71 131 144 143
1.31454 2.49346 9.71 133 144 143
1.3238 2.4909 9.7 133 144 143
1.33442 2.4909 9.7 138 149 148
1.34365 2.48833 9.69 138 149 148
1.35426 2.48833 9.69 138 149 148
1.36346 2.48576 9.68 138 149 148
1.37405 2.48576 9.68 138 149 148
1.38179 2.48062 9.66 140 151 150
1.39236 2.48062 9.66 141 152 151
1.40293 2.48062 9.66 141 152 151
1.41351 2.48062 9.66 141 152 151
1.42408 2.48062 9.66 142 153 152
1.43466 2.48062 9.66 140 151 150
1.44673 2.48319 9.67 141 152 151
1.45882 2.48576 9.68 143 154 153
1.46941 2.48576 9.68 144 155 154
1.48154 2.48833 9.69 144 155 154
1.49214 2.48833 9.69 143 154 153
1.5043 2.4909 9.7 142 152 154
1.51492 2.4909 9.7 145 155 157
1.52554 2.4909 9.7 143 153 155
1.53615 2.4909 9.7 142 152 154
1.54677 2.4909 9.7 142 152 154
1.55739 2.4909 9.7 141 151 153
1.56801 2.4909 9.7 143 153 155
1.577 2.48833 9.69 142 152 154
1.5876 2.48833 9.69 141 151 153
1.59656 2.48576 9.68 141 151 153
1.60716 2.48576 9.68 141 151 153
1.61775 2.48576 9.68 142 152 154
1.62667 2.48319 9.67 143 153 155
1.63556 2.48062 9.66 142 152 154
1.64613 2.48062 9.66 142 152 154
1.65499 2.47806 9.65 142 152 154
1.66555 2.47806 9.65 142 152 154
1.67612 2.47806 9.65 142 152 154
1.68668 2.47806 9.65 143 154 153
1.69724 2.47806 9.65 144 155 154
1.70427 2.47292 9.63 146 157 156
1.71481 2.47292 9.63 144 155 154
1.72535 2.47292 9.63 144 155 154
1.73589 2.47292 9.63 144 155 154
1.74643 2.47292 9.63 144 155 154
1.75697 2.47292 9.63 142 153 152
1.76751 2.47292 9.63 142 153 152
1.77621 2.47035 9.62 142 153 152
1.78674 2.47035 9.62 144 155 154
1.79727 2.47035 9.62 145 156 155
1.8078 2.47035 9.62 148 157 156
1.81833 2.47035 9.62 151 160 159
1.82886 2.47035 9.62 150 159 158
1.83939 2.47035 9.62 148 157 156
1.84992 2.47035 9.62 147 156 154
1.86045 2.47035 9.62 148 157 155
1.87292 2.47292 9.63 148 157 155
1.88346 2.47292 9.63 147 156 154
1.89794 2.47806 9.65 147 156 154
1.9085 2.47806 9.65 146 155 153
1.92105 2.48062 9.66 146 155 153
1.93163 2.48062 9.66 148 157 155
1.94421 2.48319 9.67 151 160 158
1.95682 2.48576 9.68 148 157 155
1.96741 2.48576 9.68 147 156 154
1.98005 2.48833 9.69 151 160 158
1.99066 2.48833 9.69 151 160 158
2.00127 2.48833 9.69 150 159 157
2.0098 2.48576 9.68 150 159 157
2.02248 2.48833 9.69 151 160 158
2.03099 2.48576 9.68 151 160 159
2.04158 2.48576 9.68 151 160 159
2.05218 2.48576 9.68 152 161 160
2.06277 2.48576 9.68 150 159 158
2.07337 2.48576 9.68 147 156 155
2.08397 2.48576 9.68 147 156 155
2.09456 2.48576 9.68 146 155 154
2.10733 2.48833 9.69 147 156 155
2.11794 2.48833 9.69 147 156 155
2.12855 2.48833 9.69 147 156 155
2.13915 2.48833 9.69 147 156 155
2.14976 2.48833 9.69 146 155 154
2.16037 2.48833 9.69 145 154 153
2.16873 2.48576 9.68 146 155 154
0 0 0 148 157 156
0 0 0 148 157 156
2.19597 2.48062 9.66 146 156 158
2.20655 2.48062 9.66 146 156 158
2.21482 2.47806 9.65 144 154 156
2.22539 2.47806 9.65 144 154 156
2.23827 2.48062 9.66 144 155 154
2.24651 2.47806 9.65 144 155 154
2.25708 2.47806 9.65 145 156 155
2.26764 2.47806 9.65 145 156 155
2.2782 2.47806 9.65 147 156 155
2.28639 2.47549 9.64 147 156 155
2.29456 2.47292 9.63 146 155 154
2.30271 2.47035 9.62 148 157 156
2.31084 2.46778 9.61 146 157 156
2.31652 2.46265 9.59 144 155 154
2.32459 2.46008 9.58 144 155 154
2.33508 2.46008 9.58 144 155 154
2.34312 2.45751 9.57 146 157 155
2.35359 2.45751 9.57 146 157 155
2.36407 2.45751 9.57 144 155 153
2.37454 2.45751 9.57 142 153 151
2.38751 2.46008 9.58 139 152 151
2.4005 2.46265 9.59 141 154 153
2.41854 2.47035 9.62 138 150 152
2.4316 2.47292 9.63 141 153 155
2.44721 2.47806 9.65 148 160 162
2.46286 2.48319 9.67 148 160 162
2.47857 2.48833 9.69 147 156 155
2.49174 2.4909 9.7 137 146 145
2.50752 2.49603 9.72 135 144 143
2.52075 2.4986 9.73 115 124 123
2.5314 2.4986 9.73 98 114 111
2.54205 2.4986 9.73 103 119 116
2.5527 2.4986 9.73 94 111 105
2.56598 2.50117 9.74 102 119 113
2.57929 2.50374 9.75 103 122 111
2.58996 2.50374 9.75 101 120 109
2.60064 2.50374 9.75 99 118 107
2.61131 2.50374 9.75 98 117 106
2.62467 2.5063 9.76 99 115 105
2.63535 2.5063 9.76 99 115 105
2.64604 2.5063 9.76 99 114 106
2.65944 2.50887 9.77 98 113 105
2.67287 2.51144 9.78 96 110 105
2.68632 2.51401 9.79 96 110 105
2.69979 2.51658 9.8 98 111 109
2.71605 2.52171 9.82 97 110 108
2.72957 2.52428 9.83 98 109 107
2.74591 2.52941 9.85 98 109 107
2.76229 2.53455 9.87 99 110 109
2.7759 2.53712 9.88 99 110 109
2.79236 2.54225 9.9 98 109 108
2.80603 2.54482 9.91 96 107 106
2.82256 2.54996 9.93 93 106 105
2.83343 2.54996 9.93 91 104 103
2.84716 2.55253 9.94 87 100 99
2.85804 2.55253 9.94 94 107 106
-1.06803 2.61241 10.13 101 94 95
-1.05798 2.61499 10.14 116 109 110
-1.04792 2.61757 10.15 121 118 115
-1.03681 2.61757 10.15 119 116 113
-1.0257 2.61757 10.15 119 116 113
-1.01459 2.61757 10.15 121 118 115
-1.00348 2.61757 10.15 120 117 114
-0.992365 2.61757 10.15 120 117 114
-0.981255 2.61757 10.15 119 118 115
-0.970145 2.61757 10.15 123 122 119
-0.959035 2.61757 10.15 124 125 122
-0.947924 2.61757 10.15 123 124 121
-0.935891 2.61499 10.14 123 124 121
-0.92388 2.61241 10.13 119 120 117
-0.912792 2.61241 10.13 119 120 117
-0.900813 2.60983 10.12 118 119 116
-0.888857 2.60725 10.11 118 119 116
-0.876922 2.60468 10.1 119 120 117
-0.865009 2.6021 10.09 119 120 117
-0.853118 2.59952 10.08 121 122 119
-0.841249 2.59694 10.07 122 123 120
-0.828578 2.59178 10.05 122 123 120
-0.816764 2.5892 10.04 122 123 120
-0.804971 2.58662 10.03 122 123 120
-0.792409 2.58147 10.01 115 115 115
-0.77911 2.57373 9.98 109 109 109
-0.767416 2.57115 9.97 116 114 115
-0.754227 2.56341 9.94 137 135 136
-0.742599 2.56083 9.93 163 167 167
-0.730256 2.55568 9.91 165 169 169
-0.71723 2.54794 9.88 156 162 161
-0.705701 2.54536 9.87 156 162 161
-0.693489 2.5402 9.85 157 163 162
-0.682014 2.53763 9.84 156 162 161
-0.669879 2.53247 9.82 152 161 159
-0.657787 2.52731 9.8 150 159 157
-0.6464 2.52473 9.79 150 159 157
-0.635035 2.52215 9.78 151 160 158
-0.623691 2.51957 9.77 150 159 157
-0.612369 2.51699 9.76 148 157 155
-0.60107 2.51442 9.75 148 158 153
-0.589186 2.50926 9.73 139 149 144
0.417228 2.41642 9.37 110 116 116
0.428397 2.42158 9.39 113 124 123
0.439142 2.42415 9.4 112 123 122
0.450866 2.43189 9.43 113 124 123
0.462166 2.43705 9.45 114 125 124
0.47401 2.44479 9.48 115 128 127
0.485409 2.44994 9.5 119 132 131
0.496851 2.4551 9.52 117 130 129
0.50887 2.46284 9.55 113 126 125
0.520955 2.47057 9.58 112 124 126
0.532551 2.47573 9.6 113 125 127
0.544191 2.48089 9.62 112 124 126
0.555874 2.48605 9.64 112 124 126
0.567013 2.48863 9.65 119 130 134
0.577576 2.48863 9.65 117 128 132
0.588749 2.49121 9.66 117 128 132
0.599322 2.49121 9.66 115 126 130
0.609265 2.48863 9.65 115 126 130
0.619828 2.48863 9.65 115 126 130
0.630391 2.48863 9.65 119 130 134
0.639625 2.48347 9.63 115 126 130
0.650166 2.48347 9.63 125 137 139
0.660707 2.48347 9.63 119 131 133
0.670551 2.48089 9.62 105 117 119
0.681789 2.48347 9.63 117 129 131
0.69233 2.48347 9.63 121 133 135
0.702871 2.48347 9.63 119 131 133
0.713412 2.48347 9.63 120 132 134
0.724705 2.48605 9.64 119 131 133
0.73602 2.48863 9.65 121 133 135
0.747356 2.49121 9.66 121 133 135
0.75793 2.49121 9.66 121 133 135
0.768504 2.49121 9.66 121 133 135
0.779078 2.49121 9.66 121 133 135
0.789652 2.49121 9.66 121 133 135
0.800225 2.49121 9.66 122 134 136
0.810799 2.49121 9.66 124 136 138
0.821373 2.49121 9.66 122 134 136
0.831947 2.49121 9.66 121 133 135
0.842521 2.49121 9.66 121 133 135
0.853978 2.49378 9.67 122 134 136
0.864563 2.49378 9.67 122 134 136
0.875147 2.49378 9.67 124 136 138
0.886648 2.49636 9.68 122 137 138
0.897244 2.49636 9.68 120 135 136
0.906902 2.49378 9.67 119 134 135
0.916538 2.49121 9.66 117 132 133
0.926152 2.48863 9.65 116 131 132
0.935744 2.48605 9.64 117 132 133
0.945314 2.48347 9.63 118 133 134
0.954863 2.48089 9.62 119 134 135
0.965393 2.48089 9.62 120 132 134
0.975923 2.48089 9.62 120 132 134
0.985427 2.47831 9.61 120 132 134
0.995947 2.47831 9.61 120 132 134
1.00751 2.48089 9.62 120 132 134
1.01804 2.48089 9.62 121 133 135
1.02964 2.48347 9.63 121 133 135
1.04018 2.48347 9.63 124 136 138
1.05291 2.48863 9.65 127 139 141
1.06347 2.48863 9.65 127 139 141
1.07515 2.49121 9.66 123 138 139
1.08572 2.49121 9.66 122 137 138
1.09743 2.49378 9.67 123 138 139
1.10916 2.49636 9.68 122 137 138
1.11975 2.49636 9.68 122 137 138
1.13035 2.49636 9.68 124 139 140
1.14095 2.49636 9.68 124 140 138
1.15154 2.49636 9.68 124 140 138
1.16094 2.49378 9.67 125 141 139
1.17031 2.49121 9.66 125 141 139
1.18088 2.49121 9.66 126 142 140
1.19146 2.49121 9.66 127 143 141
1.20079 2.48863 9.65 126 142 140
1.21135 2.48863 9.65 124 140 138
1.22318 2.49121 9.66 122 138 136
1.23375 2.49121 9.66 130 146 144
1.24433 2.49121 9.66 130 146 144
1.2562 2.49378 9.67 125 141 139
1.26809 2.49636 9.68 125 141 139
1.27869 2.49636 9.68 127 143 141
1.29062 2.49894 9.69 129 142 141
1.29988 2.49636 9.68 132 145 144
1.31183 2.49894 9.69 133 146 145
1.32107 2.49636 9.68 134 147 146
1.33029 2.49378 9.67 137 148 147
1.33949 2.49121 9.66 138 149 148
1.34867 2.48863 9.65 140 151 150
1.35923 2.48863 9.65 141 152 151
1.36695 2.48347 9.63 140 151 150
1.3775 2.48347 9.63 140 151 150
1.38804 2.48347 9.63 140 151 150
1.39858 2.48347 9.63 138 149 148
1.40912 2.48347 9.63 140 151 150
1.41966 2.48347 9.63 144 155 154
1.4302 2.48347 9.63 143 154 153
1.44224 2.48605 9.64 143 154 153
1.4543 2.48863 9.65 144 155 154
1.46638 2.49121 9.66 144 155 154
1.47695 2.49121 9.66 143 154 153
1.48752 2.49121 9.66 143 154 153
1.49965 2.49378 9.67 144 154 156
1.5118 2.49636 9.68 146 156 158
1.52239 2.49636 9.68 146 156 158
1.53299 2.49636 9.68 143 153 155
1.54358 2.49636 9.68 142 152 154
1.55418 2.49636 9.68 141 151 153
1.56316 2.49378 9.67 144 154 156
1.57212 2.49121 9.66 143 153 155
1.58269 2.49121 9.66 142 152 154
1.59161 2.48863 9.65 141 151 153
1.60218 2.48863 9.65 138 148 150
1.61274 2.48863 9.65 137 147 149
1.62162 2.48605 9.64 142 152 154
1.63048 2.48347 9.63 142 152 154
1.64102 2.48347 9.63 143 153 155
1.65156 2.48347 9.63 145 155 157
1.66038 2.48089 9.62 144 154 156
1.67091 2.48089 9.62 142 152 154
1.68144 2.48089 9.62 142 152 154
1.69197 2.48089 9.62 145 155 157
1.70073 2.47831 9.61 148 159 158
1.71125 2.47831 9.61 146 157 156
1.72177 2.47831 9.61 145 156 155
1.73228 2.47831 9.61 148 159 158
1.7428 2.47831 9.61 148 159 158
1.75332 2.47831 9.61 145 156 155
1.76384 2.47831 9.61 143 154 153
1.77251 2.47573 9.6 146 157 156
1.78302 2.47573 9.6 145 156 155
1.79353 2.47573 9.6 146 157 156
1.80404 2.47573 9.6 146 157 156
1.81455 2.47573 9.6 148 159 158
1.82506 2.47573 9.6 149 160 159
1.83556 2.47573 9.6 146 157 156
1.84607 2.47573 9.6 148 157 156
1.85658 2.47573 9.6 150 159 158
1.86903 2.47831 9.61 148 157 155
1.87955 2.47831 9.61 148 157 155
1.89204 2.48089 9.62 148 157 155
1.90257 2.48089 9.62 146 155 153
1.9131 2.48089 9.62 146 155 153
1.92563 2.48347 9.63 148 157 155
1.93617 2.48347 9.63 150 159 157
1.94671 2.48347 9.63 148 157 155
1.95928 2.48605 9.64 146 155 153
1.97188 2.48863 9.65 145 154 152
1.98244 2.48863 9.65 146 155 153
1.993 2.48863 9.65 150 159 157
2.00357 2.48863 9.65 150 159 158
2.01413 2.48863 9.65 150 159 158
2.02469 2.48863 9.65 151 160 159
2.03526 2.48863 9.65 152 161 160
2.04582 2.48863 9.65 152 161 160
2.05638 2.48863 9.65 151 160 159
2.0648 2.48605 9.64 151 162 161
2.07535 2.48605 9.64 151 162 161
2.08591 2.48605 9.64 145 156 155
2.09863 2.48863 9.65 145 156 155
2.10701 2.48605 9.64 145 156 155
2.11756 2.48605 9.64 146 157 156
2.12811 2.48605 9.64 147 156 155
2.13867 2.48605 9.64 146 155 154
2.14922 2.48605 9.64 146 155 154
0 0 0 147 156 155
2.16807 2.48347 9.63 151 160 159
2.17861 2.48347 9.63 150 159 158
2.18688 2.48089 9.62 148 157 156
2.19741 2.48089 9.62 150 159 158
2.20794 2.48089 9.62 148 157 156
2.22078 2.48347 9.63 147 156 155
2.23132 2.48347 9.63 146 155 154
2.24186 2.48347 9.63 146 155 154
2.2524 2.48347 9.63 147 156 155
2.26294 2.48347 9.63 147 156 155
2.27112 2.48089 9.62 147 156 155
2.28165 2.48089 9.62 148 157 156
2.2898 2.47831 9.61 150 159 158
2.30032 2.47831 9.61 147 156 155
2.30603 2.47315 9.59 145 156 155
2.31411 2.47057 9.58 143 154 153
2.32217 2.468 9.57 144 155 154
2.33264 2.468 9.57 144 155 154
2.34067 2.46542 9.56 145 156 154
2.34867 2.46284 9.55 146 157 155
2.3616 2.46542 9.56 149 160 158
2.37206 2.46542 9.56 141 152 150
2.38751 2.47057 9.58 143 154 153
2.4005 2.47315 9.59 148 159 158
2.41854 2.48089 9.62 143 152 156
2.4316 2.48347 9.63 135 144 148
2.44721 2.48863 9.65 142 152 154
2.46541 2.49636 9.68 137 147 149
2.47857 2.49894 9.69 120 126 125
2.49174 2.50152 9.7 109 115 114
2.50752 2.50668 9.72 108 112 111
2.52075 2.50926 9.73 106 110 109
2.5314 2.50926 9.73 97 110 108
2.54205 2.50926 9.73 98 111 109
2.5527 2.50926 9.73 97 114 108
2.56598 2.51184 9.74 97 114 108
2.57665 2.51184 9.74 97 115 106
2.58996 2.51442 9.75 97 115 106
2.60064 2.51442 9.75 97 115 106
2.61131 2.51442 9.75 97 115 106
2.62198 2.51442 9.75 96 114 105
2.63265 2.51442 9.75 96 114 105
2.64604 2.51699 9.76 99 114 106
2.65672 2.51699 9.76 97 112 104
2.67014 2.51957 9.77 96 110 105
2.68357 2.52215 9.78 96 110 105
2.69703 2.52473 9.79 97 111 106
2.71328 2.52989 9.81 98 112 107
2.7268 2.53247 9.82 97 110 108
2.74312 2.53763 9.84 96 109 107
2.75949 2.54278 9.86 97 110 108
2.7759 2.54794 9.88 98 111 109
2.78954 2.55052 9.89 97 110 108
2.80603 2.55568 9.91 94 107 105
2.81972 2.55826 9.92 92 105 103
2.83343 2.56083 9.93 90 103 101
2.84716 2.56341 9.94 87 100 98
2.85804 2.56341 9.94 96 109 107
2.87181 2.56599 9.95 98 105 101
-1.04379 2.61833 10.11 92 89 86
-1.03272 2.61833 10.11 128 125 122
-1.02266 2.62092 10.12 125 124 121
-1.01159 2.62092 10.12 119 118 115
-1.00051 2.62092 10.12 118 117 114
-0.989432 2.62092 10.12 114 113 110
-0.979322 2.62351 10.13 114 115 112
-0.968233 2.62351 10.13 116 117 114
-0.957145 2.62351 10.13 116 117 114
-0.946057 2.62351 10.13 117 118 115
-0.934968 2.62351 10.13 121 122 119
-0.92388 2.62351 10.13 122 123 120
-0.911891 2.62092 10.12 121 122 119
-0.899923 2.61833 10.11 118 119 116
-0.888857 2.61833 10.11 118 119 116
-0.876922 2.61574 10.1 118 119 116
-0.865009 2.61315 10.09 118 119 116
-0.853118 2.61056 10.08 118 119 116
-0.841249 2.60797 10.07 118 119 116
-0.828578 2.60279 10.05 121 122 119
-0.816764 2.6002 10.04 122 123 120
-0.804169 2.59502 10.02 121 122 119
-0.791618 2.58984 10 121 122 119
-0.77911 2.58466 9.98 119 120 117
-0.766647 2.57948 9.96 123 121 121
-0.753468 2.57171 9.93 119 117 117
-0.741103 2.56653 9.91 120 124 124
-0.728782 2.56135 9.89 151 155 155
-0.716504 2.55617 9.87 163 169 169
-0.704271 2.55099 9.85 161 167 167
-0.692785 2.5484 9.84 156 162 161
-0.680628 2.54322 9.82 156 162 161
-0.668514 2.53804 9.8 153 162 160
-0.657116 2.53545 9.79 151 160 158
-0.645079 2.53027 9.77 150 159 157
-0.634385 2.53027 9.77 150 159 157
-0.623053 2.52768 9.76 150 159 157
-0.611742 2.52509 9.75 150 159 157
-0.599837 2.51992 9.73 152 161 159
-0.588581 2.51733 9.72 142 151 149
0.406972 2.42668 9.37 126 132 132
0.417673 2.42927 9.38 107 113 113
0.428397 2.43186 9.39 114 125 124
0.439609 2.43704 9.41 114 125 124
0.450866 2.44222 9.43 113 124 123
0.462655 2.44999 9.46 114 125 124
0.47401 2.45517 9.48 116 127 126
0.485409 2.46035 9.5 119 130 129
0.497373 2.46812 9.53 117 130 129
0.50887 2.4733 9.55 117 130 129
0.520411 2.47848 9.57 117 129 131
0.531996 2.48366 9.59 119 131 133
0.543625 2.48884 9.61 107 119 121
0.554721 2.49143 9.62 110 122 124
0.565251 2.49143 9.62 117 128 132
0.576379 2.49402 9.63 118 129 133
0.58692 2.49402 9.63 117 128 132
0.597461 2.49402 9.63 117 128 132
0.608002 2.49402 9.63 115 126 130
0.618543 2.49402 9.63 117 128 132
0.629084 2.49402 9.63 119 131 133
0.638961 2.49143 9.62 121 133 135
0.648816 2.48884 9.61 121 134 133
0.658649 2.48625 9.6 121 134 133
0.669157 2.48625 9.6 121 134 133
0.679665 2.48625 9.6 124 137 136
0.690174 2.48625 9.6 127 140 139
0.700682 2.48625 9.6 120 133 132
0.71119 2.48625 9.6 120 133 132
0.72245 2.48884 9.61 120 133 132
0.732969 2.48884 9.61 121 134 133
0.744262 2.49143 9.62 120 133 132
0.754792 2.49143 9.62 121 133 135
0.765322 2.49143 9.62 122 134 136
0.775852 2.49143 9.62 122 134 136
0.786382 2.49143 9.62 122 134 136
0.796912 2.49143 9.62 124 136 138
0.807442 2.49143 9.62 125 137 139
0.817972 2.49143 9.62 121 133 135
0.829363 2.49402 9.63 121 133 135
0.840776 2.49661 9.64 122 134 136
0.852212 2.4992 9.65 124 136 138
0.862774 2.4992 9.65 124 136 138
0.873337 2.4992 9.65 124 136 138
0.8839 2.4992 9.65 122 137 138
0.89539 2.50179 9.66 122 137 138
0.905026 2.4992 9.65 120 135 136
0.915589 2.4992 9.65 123 138 139
0.924232 2.49402 9.63 129 143 146
0.933803 2.49143 9.62 118 132 135
0.944333 2.49143 9.62 118 133 134
0.95387 2.48884 9.61 122 137 138
0.963386 2.48625 9.6 120 135 136
0.973894 2.48625 9.6 120 135 136
0.983377 2.48366 9.59 121 133 135
0.993874 2.48366 9.59 121 133 135
1.00437 2.48366 9.59 120 132 134
1.01593 2.48625 9.6 120 132 134
1.0275 2.48884 9.61 120 132 134
1.03802 2.48884 9.61 122 134 136
1.04963 2.49143 9.62 125 137 139
1.06127 2.49402 9.63 125 137 139
1.07181 2.49402 9.63 123 138 139
1.08235 2.49402 9.63 124 139 140
1.09289 2.49402 9.63 125 140 141
1.10458 2.49661 9.64 126 141 142
1.11513 2.49661 9.64 125 140 141
1.12568 2.49661 9.64 125 140 141
1.13623 2.49661 9.64 125 140 141
1.14678 2.49661 9.64 124 139 140
1.15613 2.49402 9.63 124 140 138
1.16668 2.49402 9.63 125 141 139
1.17722 2.49402 9.63 127 143 141
1.18776 2.49402 9.63 127 143 141
1.1983 2.49402 9.63 127 143 141
1.20884 2.49402 9.63 125 141 139
1.21938 2.49402 9.63 119 135 133
1.22992 2.49402 9.63 126 142 140
1.24175 2.49661 9.64 127 143 141
1.2523 2.49661 9.64 129 145 143
1.26416 2.4992 9.65 126 139 138
1.27473 2.4992 9.65 134 147 146
1.28662 2.50179 9.66 133 146 145
1.2972 2.50179 9.66 134 147 146
1.30642 2.4992 9.65 135 148 147
1.31698 2.4992 9.65 135 148 147
1.32754 2.4992 9.65 140 153 152
1.33533 2.49402 9.63 140 153 152
1.34587 2.49402 9.63 142 153 152
1.355 2.49143 9.62 142 153 152
1.36553 2.49143 9.62 141 152 151
1.37463 2.48884 9.61 140 151 150
1.38515 2.48884 9.61 140 151 150
1.39567 2.48884 9.61 140 151 150
1.40619 2.48884 9.61 140 151 150
1.41671 2.48884 9.61 144 155 154
1.42872 2.49143 9.62 145 156 155
1.43925 2.49143 9.62 144 155 154
1.45128 2.49402 9.63 141 154 153
1.46182 2.49402 9.63 142 155 154
1.47236 2.49402 9.63 142 155 154
1.48445 2.49661 9.64 141 154 153
1.495 2.49661 9.64 142 154 156
1.50711 2.4992 9.65 143 155 157
1.51767 2.4992 9.65 146 156 158
1.52824 2.4992 9.65 143 153 155
1.5388 2.4992 9.65 143 153 155
1.54936 2.4992 9.65 141 151 153
1.55831 2.49661 9.64 142 152 154
1.56723 2.49402 9.63 142 152 154
1.57777 2.49402 9.63 141 151 153
1.58667 2.49143 9.62 141 151 153
1.5972 2.49143 9.62 140 148 150
1.60773 2.49143 9.62 139 147 149
1.61657 2.48884 9.61 143 153 155
1.62709 2.48884 9.61 144 154 156
1.63591 2.48625 9.6 145 155 157
1.64642 2.48625 9.6 145 155 157
1.6552 2.48366 9.59 144 154 156
1.6657 2.48366 9.59 143 153 155
1.67619 2.48366 9.59 143 153 155
1.68669 2.48366 9.59 145 155 157
1.69719 2.48366 9.59 146 156 158
1.70768 2.48366 9.59 146 156 158
1.71818 2.48366 9.59 146 157 156
1.72868 2.48366 9.59 148 159 158
1.73918 2.48366 9.59 148 159 158
1.74967 2.48366 9.59 146 157 156
1.76017 2.48366 9.59 145 156 155
1.76882 2.48107 9.58 146 157 156
1.77931 2.48107 9.58 146 157 156
1.78979 2.48107 9.58 146 157 156
1.80028 2.48107 9.58 146 157 156
1.81077 2.48107 9.58 146 157 156
1.82125 2.48107 9.58 146 157 156
1.83174 2.48107 9.58 146 157 156
1.84223 2.48107 9.58 147 156 154
1.85271 2.48107 9.58 147 156 154
1.86514 2.48366 9.59 150 159 157
1.87564 2.48366 9.59 147 156 154
1.88614 2.48366 9.59 145 154 152
1.89663 2.48366 9.59 147 156 154
1.90912 2.48625 9.6 147 156 154
1.92163 2.48884 9.61 148 157 155
1.93215 2.48884 9.61 150 159 157
1.94267 2.48884 9.61 152 161 159
1.95522 2.49143 9.62 152 161 159
1.96575 2.49143 9.62 151 160 158
1.97628 2.49143 9.62 150 159 157
1.98887 2.49402 9.63 150 159 157
1.99941 2.49402 9.63 148 157 155
2.00996 2.49402 9.63 146 155 153
2.0205 2.49402 9.63 147 156 155
2.03104 2.49402 9.63 150 159 158
2.03946 2.49143 9.62 150 159 158
2.04999 2.49143 9.62 150 159 158
2.05838 2.48884 9.61 148 159 158
2.0689 2.48884 9.61 144 155 154
2.07941 2.48884 9.61 145 156 155
2.08993 2.48884 9.61 145 156 155
2.09827 2.48625 9.6 146 157 156
2.11097 2.48884 9.61 145 156 155
2.11928 2.48625 9.6 145 156 155
2.12757 2.48366 9.59 146 157 156
2.14253 2.48884 9.61 150 159 158
2.15305 2.48884 9.61 150 159 158
2.16357 2.48884 9.61 151 160 159
2.17182 2.48625 9.6 151 160 159
2.18233 2.48625 9.6 151 160 159
2.19284 2.48625 9.6 150 159 158
2.20335 2.48625 9.6 150 159 158
2.21616 2.48884 9.61 150 159 158
2.22668 2.48884 9.61 148 159 158
2.2372 2.48884 9.61 148 159 158
2.24772 2.48884 9.61 146 157 156
2.25824 2.48884 9.61 145 156 155
2.26876 2.48884 9.61 145 156 155
2.27928 2.48884 9.61 146 157 156
2.28741 2.48625 9.6 143 154 153
2.29553 2.48366 9.59 143 154 153
2.30362 2.48107 9.58 142 153 152
2.31169 2.47848 9.57 143 154 153
2.32217 2.47848 9.57 144 155 154
2.33021 2.47589 9.56 144 155 154
2.33822 2.4733 9.55 145 156 154
2.34867 2.4733 9.55 145 156 154
2.35913 2.4733 9.55 144 155 154
2.37206 2.47589 9.56 141 152 151
2.38751 2.48107 9.58 136 145 149
2.4005 2.48366 9.59 137 146 150
2.41854 2.49143 9.62 129 137 144
2.43412 2.49661 9.64 105 113 120
2.44974 2.50179 9.66 104 112 114
2.46541 2.50697 9.68 105 113 115
2.48112 2.51215 9.7 111 115 114
2.49688 2.51733 9.72 111 115 114
2.5101 2.51992 9.73 100 104 103
2.52075 2.51992 9.73 108 112 111
2.5314 2.51992 9.73 103 114 112
2.54205 2.51992 9.73 101 112 110
2.5527 2.51992 9.73 96 110 105
2.56598 2.52251 9.74 97 111 106
2.57665 2.52251 9.74 98 112 107
2.58731 2.52251 9.74 97 111 106
2.60064 2.52509 9.75 96 111 103
2.61131 2.52509 9.75 96 111 103
2.62198 2.52509 9.75 96 111 103
2.63265 2.52509 9.75 96 111 103
2.64604 2.52768 9.76 96 111 103
2.65672 2.52768 9.76 96 111 103
2.67014 2.53027 9.77 96 111 103
2.68357 2.53286 9.78 96 111 103
2.69703 2.53545 9.79 98 111 103
2.71328 2.54063 9.81 99 112 104
2.7268 2.54322 9.82 99 111 106
2.74312 2.5484 9.84 98 110 105
2.75949 2.55358 9.86 96 109 107
2.77309 2.55617 9.87 97 110 108
2.78954 2.56135 9.89 97 110 108
2.80603 2.56653 9.91 97 110 108
2.82256 2.57171 9.93 93 106 104
2.83343 2.57171 9.93 91 104 102
2.84716 2.5743 9.94 91 102 100
2.86092 2.57689 9.95 101 112 110
-1.02966 2.6216 10.08 126 126 120
-1.01963 2.6242 10.09 131 133 127
-1.00859 2.6242 10.09 126 128 122
-0.997544 2.6242 10.09 116 118 112
-0.986499 2.6242 10.09 110 112 106
-0.976421 2.6268 10.1 111 112 109
-0.966322 2.6294 10.11 114 115 112
-0.955255 2.6294 10.11 115 116 113
-0.944189 2.6294 10.11 115 116 113
