ply
format ascii 1.0
comment Created by Open3D
element vertex 1351
property double x
property double y
property double z
property uchar red
property uchar green
property uchar blue
end_header
0.138186 0.27931 1.206 148 155 151
0.13916 0.278615 1.203 150 156 155
0.140009 0.277688 1.199 150 156 155
0.140968 0.276994 1.196 149 155 154
0.141682 0.275836 1.191 148 154 153
0.142626 0.275141 1.188 147 153 152
0.143684 0.274678 1.186 148 154 153
0.144615 0.273983 1.183 150 157 153
0.145294 0.272825 1.178 148 155 151
0.146085 0.271898 1.174 147 153 152
0.146868 0.270972 1.17 149 155 154
0.147769 0.270277 1.167 150 156 155
0.148791 0.269814 1.165 148 154 153
0.149937 0.269582 1.164 146 152 151
0.151082 0.269351 1.163 145 151 150
0.152093 0.268888 1.161 146 152 151
0.153231 0.268656 1.16 147 153 152
0.154501 0.268656 1.16 147 153 152
0.155637 0.268424 1.159 147 153 152
0.156905 0.268424 1.159 147 153 152
0.158037 0.268193 1.158 147 153 152
0.159167 0.267961 1.157 147 153 152
0.160295 0.26773 1.156 148 154 153
0.161421 0.267498 1.155 149 155 154
0.162544 0.267266 1.154 148 154 153
0.163665 0.267035 1.153 147 153 153
0.164641 0.266572 1.151 147 153 153
0.165757 0.26634 1.15 147 153 153
0.166871 0.266108 1.149 146 152 152
0.167982 0.265877 1.148 144 150 150
0.169091 0.265645 1.147 148 154 154
0.170198 0.265414 1.146 147 153 153
0.171453 0.265414 1.146 147 153 153
0.172707 0.265414 1.146 147 153 153
0.17381 0.265182 1.145 148 154 154
0.175063 0.265182 1.145 149 155 155
0.176316 0.265182 1.145 149 155 155
0.177725 0.265414 1.146 147 156 155
0.178979 0.265414 1.146 148 157 156
0.180234 0.265414 1.146 148 157 156
0.181488 0.265414 1.146 148 157 156
0.182742 0.265414 1.146 148 157 156
0.183997 0.265414 1.146 147 156 155
0.185251 0.265414 1.146 147 156 155
0.186668 0.265645 1.147 146 155 154
0.187924 0.265645 1.147 146 155 154
0.189179 0.265645 1.147 147 156 155
0.190601 0.265877 1.148 146 155 154
0.192025 0.266108 1.149 147 156 155
0.193451 0.26634 1.15 146 155 154
0.194709 0.26634 1.15 145 154 153
0.195968 0.26634 1.15 145 154 153
0.197227 0.26634 1.15 147 156 155
0.198313 0.266108 1.149 147 156 155
0.199397 0.265877 1.148 145 154 153
0.200479 0.265645 1.147 146 152 152
0.201383 0.265182 1.145 145 151 151
0.202636 0.265182 1.145 146 152 152
0.203355 0.264487 1.142 148 154 154
0.204426 0.264256 1.141 148 154 154
0.205134 0.263561 1.138 148 154 154
0.205836 0.262866 1.135 149 155 155
0.206713 0.262403 1.133 147 153 153
0.207586 0.26194 1.131 146 152 152
0.208455 0.261476 1.129 146 152 152
0.209319 0.261013 1.127 148 154 153
0.210179 0.26055 1.125 147 153 152
0.211411 0.26055 1.125 148 154 153
0.212642 0.26055 1.125 148 154 153
0.213874 0.26055 1.125 149 155 154
0.215105 0.26055 1.125 148 154 153
0.216529 0.260782 1.126 145 151 150
0.217955 0.261013 1.127 146 152 151
0.219383 0.261245 1.128 143 152 150
0.220813 0.261476 1.129 145 154 152
0.222049 0.261476 1.129 148 157 155
0.223285 0.261476 1.129 148 157 155
0.224521 0.261476 1.129 144 153 151
0.225556 0.261245 1.128 142 151 149
0.226791 0.261245 1.128 144 153 151
0.228026 0.261245 1.128 147 156 154
0.228854 0.260782 1.126 147 156 155
0.229882 0.26055 1.125 146 155 154
0.231114 0.26055 1.125 146 155 154
0.232345 0.26055 1.125 146 155 154
0.233576 0.26055 1.125 145 154 153
0.234599 0.260318 1.124 144 153 152
0.236039 0.26055 1.125 144 153 152
0.237271 0.26055 1.125 144 153 152
0.238502 0.26055 1.125 142 152 154
0.239947 0.260782 1.126 142 152 154
0.241179 0.260782 1.126 142 152 154
0.242842 0.261245 1.128 140 150 152
0.244077 0.261245 1.128 140 150 152
0.245529 0.261476 1.129 141 151 153
0.246765 0.261476 1.129 142 152 154
0.248001 0.261476 1.129 142 152 154
0.249237 0.261476 1.129 142 152 154
0.250472 0.261476 1.129 143 153 155
0.251485 0.261245 1.128 143 154 153
0.252496 0.261013 1.127 142 153 152
0.253279 0.26055 1.125 141 152 151
0.254058 0.260087 1.123 141 152 151
0.254833 0.259624 1.121 142 153 152
0.255375 0.258929 1.118 141 152 151
0.25568 0.258002 1.114 140 151 150
0.256208 0.257308 1.111 140 151 150
0.256729 0.256613 1.108 141 152 151
0.257709 0.256381 1.107 141 152 151
0.258453 0.255918 1.105 140 151 150
0.259427 0.255686 1.104 138 149 148
0.2604 0.255455 1.103 138 151 150
0.261844 0.255686 1.104 136 149 148
0.263291 0.255918 1.105 139 152 151
0.2645 0.255918 1.105 142 155 154
0.26595 0.25615 1.106 138 151 150
0.267161 0.25615 1.106 138 151 150
0.268372 0.25615 1.106 133 146 145
0.269582 0.25615 1.106 141 154 153
0.270793 0.25615 1.106 141 157 155
0.271512 0.255686 1.104 141 157 155
0.27272 0.255686 1.104 140 156 154
0.273432 0.255223 1.102 139 155 153
0.274389 0.254992 1.101 138 156 153
0.275094 0.254528 1.099 137 155 152
0.276045 0.254297 1.098 136 154 151
0.276995 0.254065 1.097 135 153 150
0.277688 0.253602 1.095 137 153 150
0.278632 0.25337 1.094 136 152 149
0.279574 0.253139 1.093 136 152 149
0.280514 0.252907 1.092 137 153 150
0.281709 0.252907 1.092 137 153 150
0.282904 0.252907 1.092 139 155 152
0.283839 0.252676 1.091 139 155 152
0.284772 0.252444 1.09 138 154 151
0.285965 0.252444 1.09 136 152 149
0.287158 0.252444 1.09 137 153 150
0.288087 0.252212 1.089 136 152 149
0.289013 0.251981 1.088 134 150 147
0.289938 0.251749 1.087 136 152 149
0.29086 0.251518 1.086 136 152 149
0.291779 0.251286 1.085 135 148 146
0.292697 0.251054 1.084 134 147 145
0.293612 0.250823 1.083 132 145 143
0.294526 0.250591 1.082 136 149 147
0.295437 0.25036 1.081 139 152 150
0.296894 0.250591 1.082 124 137 135
0.298079 0.250591 1.082 129 142 140
0.29954 0.250823 1.083 127 140 138
0.300725 0.250823 1.083 126 139 137
0.301911 0.250823 1.083 126 139 137
0.303376 0.251054 1.084 125 138 136
0.304843 0.251286 1.085 126 139 137
0.306595 0.251749 1.087 134 147 145
0.307785 0.251749 1.087 129 142 140
0.309259 0.251981 1.088 133 146 144
0.31045 0.251981 1.088 133 146 144
0.311641 0.251981 1.088 126 139 137
0.312832 0.251981 1.088 131 144 142
0.314023 0.251981 1.088 119 135 132
0.314924 0.251749 1.087 126 142 139
0.316114 0.251749 1.087 131 147 144
0.317012 0.251518 1.086 125 141 138
0.317615 0.251054 1.084 109 127 124
0.317919 0.25036 1.081 125 143 140
0.317921 0.249433 1.077 125 143 141
0.318804 0.249202 1.076 120 138 136
0.31909 0.248507 1.073 117 135 133
0.319667 0.248044 1.071 107 125 123
0.32024 0.24758 1.069 113 131 129
0.320809 0.247117 1.067 115 133 131
0.321675 0.246886 1.066 116 134 132
0.322539 0.246654 1.065 117 135 133
0.323705 0.246654 1.065 118 136 134
0.324871 0.246654 1.065 118 136 134
0.326036 0.246654 1.065 120 138 136
0.327509 0.246886 1.066 120 138 136
0.328368 0.246654 1.065 117 135 133
0.329534 0.246654 1.065 115 133 131
0.330699 0.246654 1.065 114 132 130
0.331554 0.246422 1.064 114 132 130
0.332406 0.246191 1.063 116 134 132
0.333255 0.245959 1.062 115 133 131
0.334103 0.245728 1.061 113 131 129
0.334632 0.245264 1.059 115 133 131
0.335157 0.244801 1.057 116 134 132
0.335678 0.244338 1.055 117 135 133
0.336513 0.244106 1.054 119 135 133
0.337026 0.243643 1.052 122 138 136
0.337857 0.243412 1.051 122 138 136
0.338684 0.24318 1.05 120 136 134
0.33951 0.242948 1.049 124 140 138
0.340334 0.242717 1.048 123 139 137
0.341481 0.242717 1.048 122 140 138
0.342628 0.242717 1.048 122 140 138
0.343775 0.242717 1.048 121 139 137
0.344593 0.242485 1.047 120 138 136
0.345739 0.242485 1.047 120 138 136
0.347216 0.242717 1.048 121 139 137
0.348364 0.242717 1.048 121 139 137
0.349511 0.242717 1.048 121 139 137
0.350658 0.242717 1.048 121 139 137
0.351805 0.242717 1.048 122 140 138
0.352952 0.242717 1.048 124 142 140
0.353761 0.242485 1.047 118 136 134
0.354568 0.242254 1.046 124 140 138
0.355713 0.242254 1.046 132 148 146
0.356858 0.242254 1.046 131 147 145
0.357319 0.24179 1.044 130 146 144
0.358462 0.24179 1.044 130 146 144
0.358915 0.241327 1.042 130 146 144
0.360056 0.241327 1.042 129 145 143
0.361197 0.241327 1.042 129 145 143
0.361642 0.240864 1.04 131 144 143
0.362431 0.240632 1.039 133 146 145
0.363568 0.240632 1.039 135 148 146
0.364706 0.240632 1.039 134 147 145
0.365491 0.240401 1.038 134 147 146
0.366274 0.240169 1.037 134 147 146
0.367409 0.240169 1.037 134 147 146
0.368544 0.240169 1.037 135 148 147
0.369323 0.239938 1.036 136 147 146
0.370457 0.239938 1.036 137 148 147
0.371232 0.239706 1.035 135 148 147
0.372365 0.239706 1.035 136 149 148
0.373137 0.239474 1.034 136 149 147
0.374631 0.239706 1.035 135 148 146
0.375401 0.239474 1.034 134 147 145
0.376168 0.239243 1.033 136 149 147
0.377299 0.239243 1.033 135 148 146
0.378796 0.239474 1.034 132 145 143
0.379928 0.239474 1.034 139 152 150
0.38106 0.239474 1.034 135 148 146
0.382192 0.239474 1.034 133 146 145
0.383323 0.239474 1.034 134 147 146
0.384455 0.239474 1.034 133 146 145
0.385587 0.239474 1.034 134 147 146
0.386345 0.239243 1.033 133 146 145
0.387476 0.239243 1.033 133 146 145
0.388606 0.239243 1.033 133 146 145
0.389737 0.239243 1.033 134 147 146
0.390868 0.239243 1.033 133 146 145
0.392378 0.239474 1.034 133 146 145
0.39389 0.239706 1.035 134 145 143
0.395023 0.239706 1.035 134 145 143
0.395773 0.239474 1.034 135 146 144
0.396521 0.239243 1.033 135 146 144
0.397267 0.239011 1.032 135 146 144
0.398011 0.23878 1.031 136 147 145
0.398365 0.238316 1.029 136 147 145
0.399103 0.238085 1.028 136 147 145
0.399839 0.237853 1.027 135 146 145
0.400573 0.237622 1.026 135 146 145
0.400913 0.237158 1.024 137 148 147
0.401641 0.236927 1.023 136 147 146
0.401973 0.236464 1.021 136 147 146
0.402696 0.236232 1.02 136 147 146
0.403021 0.235769 1.018 138 147 146
0.403738 0.235537 1.017 136 145 144
0.404453 0.235306 1.016 135 144 143
0.405166 0.235074 1.015 135 144 143
0.406678 0.235306 1.016 136 145 143
0.407388 0.235074 1.015 137 146 144
0.408499 0.235074 1.015 137 146 144
0.410014 0.235306 1.016 138 147 145
0.411126 0.235306 1.016 136 145 143
0.412238 0.235306 1.016 136 145 143
0.41335 0.235306 1.016 136 145 143
0.41487 0.235537 1.017 137 146 144
0.416392 0.235769 1.018 136 145 143
0.416687 0.235306 1.016 136 145 143
0.417799 0.235306 1.016 136 145 143
0.418911 0.235306 1.016 135 144 142
0.420023 0.235306 1.016 132 141 139
0.42072 0.235074 1.015 132 141 139
0.421 0.234611 1.013 131 142 140
0.421692 0.234379 1.012 135 146 144
0.422382 0.234148 1.011 134 145 143
0.42307 0.233916 1.01 133 144 142
0.423756 0.233684 1.009 133 144 142
0.424018 0.233221 1.007 134 145 143
0.424698 0.23299 1.006 133 144 142
0.425799 0.23299 1.006 133 144 142
0.426052 0.232526 1.004 135 144 142
0.427151 0.232526 1.004 135 144 142
0.427823 0.232295 1.003 135 144 142
0.428921 0.232295 1.003 135 144 142
0.430019 0.232295 1.003 133 142 140
0.431117 0.232295 1.003 132 141 139
0.432215 0.232295 1.003 132 141 139
0.433313 0.232295 1.003 133 142 140
0.43441 0.232295 1.003 135 144 142
0.435508 0.232295 1.003 135 144 142
0.436606 0.232295 1.003 131 142 140
0.437704 0.232295 1.003 130 141 139
0.438802 0.232295 1.003 128 139 137
0.4399 0.232295 1.003 129 140 138
0.440998 0.232295 1.003 132 145 144
0.442096 0.232295 1.003 121 134 133
0.443194 0.232295 1.003 94 107 106
0.444291 0.232295 1.003 97 110 109
0.445389 0.232295 1.003 87 100 99
0.446487 0.232295 1.003 90 103 102
0.447585 0.232295 1.003 89 102 101
0.448683 0.232295 1.003 90 103 102
0.449781 0.232295 1.003 90 103 101
0.450879 0.232295 1.003 90 103 101
0.452427 0.232526 1.004 92 106 101
0.453526 0.232526 1.004 91 105 100
0.455531 0.23299 1.006 89 104 96
0.457086 0.233221 1.007 85 100 92
0.458643 0.233453 1.008 85 100 92
0.460203 0.233684 1.009 86 101 93
0.462222 0.234148 1.011 86 101 93
0.464245 0.234611 1.013 85 100 92
0.465813 0.234842 1.014 84 99 91
0.467383 0.235074 1.015 84 99 91
0.468956 0.235306 1.016 84 99 91
0.470993 0.235769 1.018 84 99 91
0.472108 0.235769 1.018 85 100 92
0.474152 0.236232 1.02 86 101 93
0.475268 0.236232 1.02 87 102 94
0.477319 0.236695 1.022 86 101 93
0.479374 0.237158 1.024 85 97 92
0.480964 0.23739 1.025 81 93 88
0.128086 0.284586 1.223 119 113 106
0.129002 0.283656 1.219 150 144 137
0.129908 0.282725 1.215 153 151 145
0.130914 0.282027 1.212 163 161 155
0.131804 0.281096 1.208 159 161 155
0.132906 0.280631 1.206 157 159 153
0.133892 0.279932 1.203 154 159 155
0.13476 0.279002 1.199 154 159 155
0.135732 0.278304 1.196 148 155 151
0.136697 0.277606 1.193 148 155 151
0.137656 0.276907 1.19 149 155 154
0.138374 0.275744 1.185 149 155 154
0.139436 0.275279 1.183 149 155 154
0 0 0 148 154 153
0 0 0 147 153 152
0.142351 0.273417 1.175 148 154 153
0.143149 0.272486 1.171 150 156 155
0.144184 0.272021 1.169 148 154 153
0.145214 0.271555 1.167 147 153 152
0.146241 0.27109 1.165 149 155 154
0.147389 0.270857 1.164 149 155 154
0.14828 0.270159 1.161 148 154 153
0.149422 0.269927 1.16 147 153 152
0.150562 0.269694 1.159 147 153 152
0.151831 0.269694 1.159 146 152 151
0.152967 0.269461 1.158 147 153 152
0.153968 0.268996 1.156 147 153 152
0.155099 0.268763 1.155 146 152 151
0.156364 0.268763 1.155 147 153 152
0.157492 0.26853 1.154 148 154 153
0.158755 0.26853 1.154 148 154 153
0.159741 0.268065 1.152 148 154 153
0.160722 0.2676 1.15 148 154 153
0.161981 0.2676 1.15 148 154 153
0.163098 0.267367 1.149 148 154 154
0.164069 0.266902 1.147 149 155 155
0.165037 0.266436 1.145 149 155 155
0.16629 0.266436 1.145 148 154 154
0.167397 0.266203 1.144 146 152 152
0.168354 0.265738 1.142 148 154 154
0.169604 0.265738 1.142 147 153 153
0.170705 0.265505 1.141 147 153 153
0.172104 0.265738 1.142 147 153 153
0.173203 0.265505 1.141 147 153 153
0.174451 0.265505 1.141 148 154 154
0.1757 0.265505 1.141 149 155 155
0.177104 0.265738 1.142 148 157 156
0.178354 0.265738 1.142 148 157 156
0.179605 0.265738 1.142 148 157 156
0.180855 0.265738 1.142 147 156 155
0.182105 0.265738 1.142 147 156 155
0.183515 0.265971 1.143 150 159 158
0.184766 0.265971 1.143 150 159 158
0.186017 0.265971 1.143 148 157 156
0.187432 0.266203 1.144 146 155 154
0.18885 0.266436 1.145 146 155 154
0.190103 0.266436 1.145 145 154 153
0.191356 0.266436 1.145 147 156 155
0.192778 0.266669 1.146 148 157 156
0.194032 0.266669 1.146 148 157 156
0.195287 0.266669 1.146 148 157 156
0.196541 0.266669 1.146 147 156 155
0.197623 0.266436 1.145 145 154 153
0.198876 0.266436 1.145 144 153 152
0.199955 0.266203 1.144 145 151 151
0.200855 0.265738 1.142 146 152 152
0.201928 0.265505 1.141 147 153 153
0.202821 0.26504 1.139 148 154 154
0.203709 0.264575 1.137 147 153 153
0.204413 0.263876 1.134 146 152 152
0.205292 0.263411 1.132 147 153 153
0.205983 0.262713 1.129 147 153 153
0.207036 0.26248 1.128 146 152 152
0.207717 0.261782 1.125 146 152 152
0.208948 0.261782 1.125 147 153 152
0.209806 0.261317 1.123 148 154 153
0.211035 0.261317 1.123 148 154 153
0.212075 0.261084 1.122 150 156 155
0.213493 0.261317 1.123 149 155 154
0.214723 0.261317 1.123 147 153 152
0.216144 0.26155 1.124 147 153 152
0.217568 0.261782 1.125 147 153 152
0.218799 0.261782 1.125 144 153 151
0.220031 0.261782 1.125 145 154 152
0.221262 0.261782 1.125 147 156 154
0.222296 0.26155 1.124 147 156 154
0.223526 0.26155 1.124 146 155 153
0.224557 0.261317 1.123 143 152 150
0.225585 0.261084 1.122 143 152 150
0.226611 0.260851 1.121 150 159 157
0.227635 0.260619 1.12 150 159 158
0.22886 0.260619 1.12 150 159 158
0.229881 0.260386 1.119 148 157 156
0.231106 0.260386 1.119 146 155 154
0.232331 0.260386 1.119 142 150 152
0.233556 0.260386 1.119 144 152 154
0.23499 0.260619 1.12 144 152 154
0.236216 0.260619 1.12 144 152 154
0.237654 0.260851 1.121 144 152 154
0.239094 0.261084 1.122 144 152 154
0.240537 0.261317 1.123 142 152 154
0.242196 0.261782 1.125 140 150 152
0.243428 0.261782 1.125 141 151 153
0.245094 0.262248 1.127 141 151 153
0.246328 0.262248 1.127 142 152 154
0.247561 0.262248 1.127 142 152 154
0.248795 0.262248 1.127 143 153 155
0.249807 0.262015 1.126 143 153 155
0.250816 0.261782 1.125 143 154 153
0.2516 0.261317 1.123 143 154 153
0.252379 0.260851 1.121 143 154 153
0.253153 0.260386 1.119 142 153 152
0.253924 0.259921 1.117 142 153 152
0.254232 0.25899 1.113 142 153 152
0.254762 0.258292 1.11 141 152 151
0.255285 0.257594 1.107 141 152 151
0.255802 0.256896 1.104 142 153 152
0.256778 0.256663 1.103 142 153 152
0.257985 0.256663 1.103 141 152 151
0.258957 0.25643 1.102 141 152 151
0.259928 0.256198 1.101 139 152 151
0.26137 0.25643 1.102 138 151 150
0.262814 0.256663 1.103 140 153 152
0.264261 0.256896 1.104 150 163 162
0.26547 0.256896 1.104 138 151 150
0.266678 0.256896 1.104 136 149 148
0.268129 0.257128 1.105 141 154 153
0.269095 0.256896 1.104 140 153 152
0.270303 0.256896 1.104 140 156 154
0.271266 0.256663 1.103 142 158 156
0.272226 0.25643 1.102 142 158 156
0.272936 0.255965 1.1 140 156 154
0.273642 0.255499 1.098 140 156 153
0.274844 0.255499 1.098 139 155 152
0.275291 0.254801 1.095 138 154 151
0.276237 0.254569 1.094 138 154 151
0.276928 0.254103 1.092 138 154 151
0.277868 0.253871 1.091 138 154 151
0.278807 0.253638 1.09 139 155 152
0.28 0.253638 1.09 139 155 152
0.281193 0.253638 1.09 137 153 150
0.282127 0.253405 1.089 139 155 152
0.283059 0.253173 1.088 140 156 153
0.283988 0.25294 1.087 139 155 152
0.285178 0.25294 1.087 137 153 150
0.286368 0.25294 1.087 138 154 151
0.287293 0.252707 1.086 139 155 152
0.288217 0.252474 1.085 141 157 154
0.289137 0.252242 1.084 142 155 153
0.290056 0.252009 1.083 140 153 151
0.290973 0.251776 1.082 141 152 150
0.291887 0.251544 1.081 140 151 149
0.292799 0.251311 1.08 137 148 146
0.293709 0.251078 1.079 138 149 147
0.29489 0.251078 1.079 141 152 150
0.296071 0.251078 1.079 140 151 149
0.297252 0.251078 1.079 136 149 147
0.29871 0.251311 1.08 131 144 142
0.30017 0.251544 1.081 131 145 140
0.301353 0.251544 1.081 133 147 142
0.302816 0.251776 1.082 138 152 147
0.304563 0.252242 1.084 134 148 143
0.305749 0.252242 1.084 131 145 140
0.306936 0.252242 1.084 128 142 137
0.308122 0.252242 1.084 129 143 138
0.309309 0.252242 1.084 129 143 138
0.310495 0.252242 1.084 128 142 137
0.311682 0.252242 1.084 128 142 137
0.31258 0.252009 1.083 122 139 133
0.313475 0.251776 1.082 130 147 141
0.314369 0.251544 1.081 126 142 139
0.314968 0.251078 1.079 125 141 138
0.315563 0.250613 1.077 121 139 136
0.316154 0.250147 1.075 124 142 139
0.316445 0.249449 1.072 128 146 143
0.317026 0.248984 1.07 127 145 142
0.317603 0.248519 1.068 125 143 140
0.318175 0.248053 1.066 124 142 139
0.318742 0.247588 1.064 123 141 138
0.319606 0.247355 1.063 122 140 137
0.320468 0.247122 1.062 121 139 136
0.321328 0.24689 1.061 122 140 137
0.322489 0.24689 1.061 121 139 137
0.323956 0.247122 1.062 120 138 136
0.325118 0.247122 1.062 120 138 136
0.326281 0.247122 1.062 129 147 145
0.327135 0.24689 1.061 123 141 139
0.328296 0.24689 1.061 118 136 134
0.329457 0.24689 1.061 120 138 136
0.330619 0.24689 1.061 120 138 136
0.331155 0.246424 1.059 122 140 138
0.332314 0.246424 1.059 120 138 136
0.332843 0.245959 1.057 118 136 134
0.333368 0.245494 1.055 118 136 134
0.334206 0.245261 1.054 120 138 136
0.334723 0.244795 1.052 121 139 137
0.335236 0.24433 1.05 123 139 137
0.336065 0.244097 1.049 123 139 137
0.336892 0.243865 1.048 124 140 138
0.337717 0.243632 1.047 123 139 137
0.338539 0.243399 1.046 125 141 139
0.339684 0.243399 1.046 126 142 140
0.340503 0.243167 1.045 126 142 140
0.341647 0.243167 1.045 126 142 140
0.342791 0.243167 1.045 124 142 140
0.343935 0.243167 1.045 124 142 140
0.345079 0.243167 1.045 124 142 140
0.346554 0.243399 1.046 124 142 140
0.347699 0.243399 1.046 125 143 141
0.34851 0.243167 1.045 125 143 141
0.349654 0.243167 1.045 125 143 141
0.350798 0.243167 1.045 124 142 140
0.351605 0.242934 1.044 129 145 143
0.352748 0.242934 1.044 131 147 145
0.353551 0.242701 1.043 132 148 146
0.354353 0.242469 1.042 133 149 147
0.355494 0.242469 1.042 133 149 147
0.35595 0.242003 1.04 132 148 146
0.356745 0.24177 1.039 130 146 144
0.357882 0.24177 1.039 130 146 144
0.358674 0.241538 1.038 130 146 144
0.359463 0.241305 1.037 129 145 143
0.360251 0.241072 1.036 129 145 143
0.361036 0.24084 1.035 134 150 148
0.362519 0.241072 1.036 138 151 149
0.363302 0.24084 1.035 136 149 147
0.364435 0.24084 1.035 135 148 147
0.365214 0.240607 1.034 135 148 147
0.365992 0.240374 1.033 135 148 147
0.367123 0.240374 1.033 136 149 148
0.368253 0.240374 1.033 136 149 148
0.369026 0.240142 1.032 136 149 148
0.369797 0.239909 1.031 136 149 147
0.370926 0.239909 1.031 138 151 149
0.372054 0.239909 1.031 138 151 149
0.372821 0.239676 1.03 138 151 149
0.373948 0.239676 1.03 138 151 149
0.375076 0.239676 1.03 139 152 150
0.376203 0.239676 1.03 137 148 146
0.377331 0.239676 1.03 134 145 143
0.378826 0.239909 1.031 138 151 149
0.379954 0.239909 1.031 136 149 147
0.381083 0.239909 1.031 133 146 144
0.382211 0.239909 1.031 133 146 144
0.38334 0.239909 1.031 134 147 146
0.384468 0.239909 1.031 136 149 148
0.385597 0.239909 1.031 136 149 148
0.386725 0.239909 1.031 134 147 146
0.387854 0.239909 1.031 134 147 146
0.388982 0.239909 1.031 134 147 146
0.389733 0.239676 1.03 133 146 145
0.39086 0.239676 1.03 134 147 146
0.391987 0.239676 1.03 135 148 146
0.393115 0.239676 1.03 134 147 145
0.39386 0.239443 1.029 135 146 144
0.394602 0.239211 1.028 135 146 144
0.395342 0.238978 1.027 137 148 146
0.39608 0.238745 1.026 137 148 146
0.396429 0.23828 1.024 137 148 147
0.397162 0.238047 1.023 136 147 146
0.397892 0.237815 1.022 136 146 148
0.39823 0.237349 1.02 136 146 148
0.398955 0.237117 1.019 136 146 148
0.399678 0.236884 1.018 136 146 148
0.400005 0.236418 1.016 136 146 148
0.400722 0.236186 1.015 135 145 147
0.401833 0.236186 1.015 136 144 146
0.40215 0.23572 1.013 136 144 146
0.403259 0.23572 1.013 135 144 143
0.403969 0.235488 1.012 135 144 143
0.405076 0.235488 1.012 136 145 144
0.406184 0.235488 1.012 137 146 145
0.407292 0.235488 1.012 138 147 146
0.408803 0.23572 1.013 139 148 147
0.409912 0.23572 1.013 137 146 144
0.411021 0.23572 1.013 136 145 143
0.41213 0.23572 1.013 136 145 143
0.413646 0.235953 1.014 137 146 144
0.414756 0.235953 1.014 137 146 144
0.415456 0.23572 1.013 138 147 145
0.416565 0.23572 1.013 136 145 143
0.417674 0.23572 1.013 133 142 140
0.417956 0.235255 1.011 133 142 140
0.418648 0.235022 1.01 132 141 139
0.419338 0.23479 1.009 134 145 143
0.420026 0.234557 1.008 135 146 144
0.420293 0.234092 1.006 133 144 142
0.421395 0.234092 1.006 134 145 143
0.422076 0.233859 1.005 135 146 144
0.422755 0.233626 1.004 134 145 143
0.423432 0.233393 1.003 133 144 142
0.42453 0.233393 1.003 133 144 142
0.425203 0.233161 1.002 135 144 142
0.425874 0.232928 1.001 135 144 142
0.42697 0.232928 1.001 135 144 142
0.428493 0.233161 1.002 136 145 143
0.429161 0.232928 1.001 135 144 142
0.430257 0.232928 1.001 133 142 140
0.431353 0.232928 1.001 132 141 139
0.432449 0.232928 1.001 133 142 140
0.433544 0.232928 1.001 135 144 142
0.43464 0.232928 1.001 135 144 142
0.435736 0.232928 1.001 130 141 139
0.436831 0.232928 1.001 130 141 139
0.437927 0.232928 1.001 132 145 144
0.439023 0.232928 1.001 125 138 137
0.440118 0.232928 1.001 106 118 120
0.441214 0.232928 1.001 99 111 113
0.44231 0.232928 1.001 93 105 107
0.443406 0.232928 1.001 94 106 108
0.444501 0.232928 1.001 91 103 105
0.445597 0.232928 1.001 89 101 103
0.446693 0.232928 1.001 87 100 99
0.448236 0.233161 1.002 87 100 99
0.449332 0.233161 1.002 89 100 98
0.450879 0.233393 1.003 89 100 98
0.451977 0.233393 1.003 91 103 98
0.453526 0.233626 1.004 91 103 98
0.455078 0.233859 1.005 86 100 95
0.456632 0.234092 1.006 85 99 94
0.458643 0.234557 1.008 85 100 92
0.460203 0.23479 1.009 85 100 92
0.461764 0.235022 1.01 85 100 92
0.463786 0.235488 1.012 84 99 91
0.465354 0.23572 1.013 83 98 90
0.467383 0.236186 1.015 83 98 90
0.468956 0.236418 1.016 82 100 91
0.470531 0.236651 1.017 82 100 91
0.472108 0.236884 1.018 82 100 91
0.473222 0.236884 1.018 82 100 91
0.475268 0.237349 1.02 82 100 91
0.476852 0.237582 1.021 82 100 91
0.478437 0.237815 1.022 83 97 92
0.480495 0.23828 1.024 86 100 95
0.125306 0.285692 1.222 140 133 128
0.126022 0.284289 1.216 144 137 132
0.126934 0.283354 1.212 168 163 158
0.127837 0.282419 1.208 163 158 153
0.128839 0.281718 1.205 146 146 140
0.129834 0.281016 1.202 152 152 146
0.130713 0.280081 1.198 150 156 149
0.131804 0.279614 1.196 148 154 147
0.132668 0.278679 1.192 146 153 149
0.133636 0.277977 1.189 146 153 149
0.13437 0.276808 1.184 146 153 149
0.135436 0.276341 1.182 147 154 150
0.136152 0.275172 1.177 148 155 151
0.13709 0.27447 1.174 149 156 152
0.138021 0.273769 1.171 149 156 152
0.138946 0.273068 1.168 148 155 151
0.139985 0.2726 1.166 148 155 151
0.14114 0.272366 1.165 148 155 151
0.142171 0.271899 1.163 148 154 153
0.143197 0.271431 1.161 147 153 152
0.144219 0.270963 1.159 148 154 153
0.145488 0.270963 1.159 149 155 154
0.14663 0.27073 1.158 146 155 153
0.147642 0.270262 1.156 145 154 152
0.148907 0.270262 1.156 145 154 153
0.150042 0.270028 1.155 146 155 154
0.151176 0.269794 1.154 146 155 154
0.152439 0.269794 1.154 146 155 154
0.153436 0.269327 1.152 148 154 153
0.154697 0.269327 1.152 147 153 152
0.155822 0.269093 1.151 147 153 152
0.156946 0.268859 1.15 149 155 154
0.158204 0.268859 1.15 149 155 154
0.159186 0.268392 1.148 148 154 153
0.160163 0.267924 1.146 147 153 152
0.161277 0.26769 1.145 147 153 152
0.162388 0.267457 1.144 148 154 154
0.163354 0.266989 1.142 149 155 155
0.16446 0.266755 1.141 150 156 156
0.165709 0.266755 1.141 149 155 155
0.166812 0.266521 1.14 149 155 155
0.167912 0.266288 1.139 148 154 154
0.16901 0.266054 1.138 147 153 153
0.170256 0.266054 1.138 148 154 154
0.171501 0.266054 1.138 149 155 154
0.172747 0.266054 1.138 150 156 155
0.173993 0.266054 1.138 149 155 154
0.175238 0.266054 1.138 149 155 154
0.176639 0.266288 1.139 150 156 156
0.17773 0.266054 1.138 149 155 155
0.179133 0.266288 1.139 147 156 155
0.180379 0.266288 1.139 147 156 155
0.181626 0.266288 1.139 147 156 155
0.182873 0.266288 1.139 146 155 154
0.184281 0.266521 1.14 147 156 155
0.185692 0.266755 1.141 148 157 156
0.186941 0.266755 1.141 146 155 154
0.18819 0.266755 1.141 145 154 153
0.189605 0.266989 1.142 146 155 154
0.191022 0.267223 1.143 146 155 154
0.192273 0.267223 1.143 146 155 154
0.193524 0.267223 1.143 147 156 155
0.194775 0.267223 1.143 148 157 156
0.196026 0.267223 1.143 146 155 154
0.197105 0.266989 1.142 144 153 152
0.198355 0.266989 1.142 145 154 153
0.19943 0.266755 1.141 147 153 153
0.200503 0.266521 1.14 148 154 154
0.201397 0.266054 1.138 149 155 155
0.202287 0.265586 1.136 149 155 155
0.203172 0.265119 1.134 149 155 155
0.204053 0.264651 1.132 148 154 154
0.204748 0.26395 1.129 146 152 152
0.205436 0.263248 1.126 147 153 153
0.206485 0.263015 1.125 146 152 152
0.207532 0.262781 1.124 146 152 152
0.208205 0.262079 1.121 146 152 151
0.209432 0.262079 1.121 147 153 152
0.210659 0.262079 1.121 148 154 153
0.211886 0.262079 1.121 149 155 154
0.213113 0.262079 1.121 144 150 149
0.21434 0.262079 1.121 148 154 153
0.215567 0.262079 1.121 149 155 154
0.216794 0.262079 1.121 147 153 152
0.218021 0.262079 1.121 145 154 152
0.219248 0.262079 1.121 147 156 154
0.220475 0.262079 1.121 148 157 155
0.221505 0.261846 1.12 146 155 153
0.222731 0.261846 1.12 145 154 152
0.223557 0.261378 1.118 144 153 151
0.22478 0.261378 1.118 137 146 144
0.225802 0.261144 1.117 148 157 155
0.226618 0.260677 1.115 148 157 156
0.227839 0.260677 1.115 147 156 155
0.228854 0.260443 1.114 145 153 155
0.230073 0.260443 1.114 143 151 153
0.231293 0.260443 1.114 142 150 152
0.232512 0.260443 1.114 144 152 154
0.233941 0.260677 1.115 144 152 154
0.235162 0.260677 1.115 145 153 155
0.236806 0.261144 1.117 145 153 155
0.238242 0.261378 1.118 146 154 156
0.239894 0.261846 1.12 144 154 156
0.241335 0.262079 1.121 142 152 154
0.242779 0.262313 1.122 141 151 153
0.244224 0.262547 1.123 141 151 153
0.245454 0.262547 1.123 140 150 152
0.246683 0.262547 1.123 140 150 152
0.247912 0.262547 1.123 141 151 153
0.248919 0.262313 1.122 143 153 155
0.249925 0.262079 1.121 143 154 153
0.250704 0.261612 1.119 144 155 154
0.251253 0.26091 1.116 144 155 154
0.252022 0.260443 1.114 142 153 152
0.252787 0.259975 1.112 141 152 151
0.25309 0.25904 1.108 143 154 153
0.253615 0.258339 1.105 143 154 153
0.254363 0.257871 1.103 143 154 153
0.255107 0.257404 1.101 143 154 153
0.256312 0.257404 1.101 143 154 153
0.257283 0.25717 1.1 143 154 153
0.258487 0.25717 1.1 138 149 148
0.259691 0.25717 1.1 139 152 151
0.261133 0.257404 1.101 140 153 152
0.262576 0.257637 1.102 140 153 152
0.264022 0.257871 1.103 149 162 161
0.26547 0.258105 1.104 140 153 152
0.266678 0.258105 1.104 139 152 151
0.267886 0.258105 1.104 144 160 158
0.269095 0.258105 1.104 142 158 156
0.270058 0.257871 1.103 141 157 155
0.27102 0.257637 1.102 142 158 156
0.271979 0.257404 1.101 141 157 155
0.27244 0.256702 1.098 141 157 155
0.273392 0.256468 1.097 140 156 153
0.274093 0.256001 1.095 137 153 150
0.274788 0.255533 1.093 137 153 150
0.275732 0.255299 1.092 138 154 151
0.27642 0.254832 1.09 140 153 151
0.277359 0.254598 1.089 141 154 152
0.278295 0.254364 1.088 141 154 152
0.279486 0.254364 1.088 141 154 152
0.280419 0.25413 1.087 140 153 151
0.281609 0.25413 1.087 141 154 152
0.282538 0.253897 1.086 139 155 152
0.283466 0.253663 1.085 138 154 151
0.284654 0.253663 1.085 138 154 151
0.285578 0.253429 1.084 138 154 151
0.286764 0.253429 1.084 141 157 154
0.287685 0.253195 1.083 140 156 153
0.288604 0.252962 1.082 141 155 150
0.28952 0.252728 1.081 141 155 150
0.290435 0.252494 1.08 143 157 152
0.291347 0.25226 1.079 141 155 150
0.292528 0.25226 1.079 140 152 147
0.293437 0.252026 1.078 141 153 148
0.294617 0.252026 1.078 141 153 148
0.295797 0.252026 1.078 142 154 149
0.296977 0.252026 1.078 142 154 149
0.298433 0.25226 1.079 140 152 147
0.299614 0.25226 1.079 134 148 143
0.301074 0.252494 1.08 136 150 145
0.302536 0.252728 1.081 139 153 148
0.30372 0.252728 1.081 136 150 145
0.305467 0.253195 1.083 133 147 142
0.306369 0.252962 1.082 131 145 140
0.307269 0.252728 1.081 131 145 140
0.308167 0.252494 1.08 132 146 141
0.309063 0.25226 1.079 131 145 140
0.309957 0.252026 1.078 133 147 142
0.310848 0.251793 1.077 125 142 136
0.311737 0.251559 1.076 131 148 142
0.312333 0.251091 1.074 127 143 140
0.313217 0.250857 1.073 126 142 139
0.313805 0.25039 1.071 124 142 139
0.314684 0.250156 1.07 128 146 143
0.315265 0.249688 1.068 128 146 143
0.315841 0.249221 1.066 127 145 142
0.316413 0.248753 1.064 127 145 142
0.317279 0.24852 1.063 128 146 143
0.317844 0.248052 1.061 127 145 142
0.319005 0.248052 1.061 125 143 140
0.320166 0.248052 1.061 123 141 138
0.321025 0.247818 1.06 123 141 138
0.322185 0.247818 1.06 123 141 138
0.323346 0.247818 1.06 121 139 136
0.3242 0.247584 1.059 127 145 142
0.325666 0.247818 1.06 130 148 145
0.326518 0.247584 1.059 127 145 142
0.327677 0.247584 1.059 122 140 137
0.328836 0.247584 1.059 123 141 138
0.329372 0.247117 1.057 124 142 139
0.330217 0.246883 1.056 124 142 139
0.331059 0.246649 1.055 123 141 138
0.331899 0.246415 1.054 122 140 137
0.33242 0.245948 1.052 121 139 136
0.332938 0.24548 1.05 126 142 139
0.333769 0.245246 1.049 125 141 138
0.334279 0.244779 1.047 126 142 139
0.335104 0.244545 1.046 125 141 138
0.335928 0.244311 1.045 126 142 139
0.336749 0.244077 1.044 126 142 139
0.337892 0.244077 1.044 126 142 139
0.33871 0.243844 1.043 126 142 139
0.339851 0.243844 1.043 127 143 140
0.340666 0.24361 1.042 127 143 140
0.341807 0.24361 1.042 128 146 143
0.343277 0.243844 1.043 128 146 143
0.344088 0.24361 1.042 128 146 143
0.34556 0.243844 1.043 129 147 144
0.347034 0.244077 1.044 130 148 145
0.347843 0.243844 1.043 130 148 145
0.34865 0.24361 1.042 129 147 145
0.349791 0.24361 1.042 129 147 145
0.350595 0.243376 1.041 130 146 144
0.351396 0.243142 1.04 132 148 146
0.352196 0.242909 1.039 133 149 146
0.352993 0.242675 1.038 136 152 149
0.353788 0.242441 1.037 136 152 149
0.354581 0.242207 1.036 133 149 146
0.355371 0.241973 1.035 131 147 144
0.356504 0.241973 1.035 132 148 145
0.357292 0.24174 1.034 132 148 145
0.358077 0.241506 1.033 132 148 145
0.35886 0.241272 1.032 137 153 150
0.359989 0.241272 1.032 136 152 149
0.361119 0.241272 1.032 136 152 149
0.361898 0.241038 1.031 134 150 147
0.363026 0.241038 1.031 134 150 147
0.363802 0.240804 1.03 133 149 146
0.364929 0.240804 1.03 135 148 147
0.365701 0.240571 1.029 138 151 150
0.366827 0.240571 1.029 139 152 150
0.367954 0.240571 1.029 139 152 150
0.36908 0.240571 1.029 138 151 149
0.369847 0.240337 1.028 136 149 147
0.370972 0.240337 1.028 138 151 149
0.372097 0.240337 1.028 136 149 147
0.372859 0.240103 1.027 138 151 149
0.374348 0.240337 1.028 138 151 149
0.375473 0.240337 1.028 136 147 145
0.376598 0.240337 1.028 135 146 144
0.377723 0.240337 1.028 135 148 146
0.378849 0.240337 1.028 134 147 145
0.379974 0.240337 1.028 131 144 142
0.381099 0.240337 1.028 132 145 143
0.382224 0.240337 1.028 135 148 147
0.38335 0.240337 1.028 138 151 150
0.384475 0.240337 1.028 138 151 150
0.385225 0.240103 1.027 135 148 147
0.385973 0.239869 1.026 134 147 146
0.387096 0.239869 1.026 134 147 146
0.388219 0.239869 1.026 133 146 144
0.389342 0.239869 1.026 132 145 143
0.390085 0.239635 1.025 134 147 145
0.390825 0.239402 1.024 135 148 146
0.391946 0.239402 1.024 134 145 143
0.392299 0.238934 1.022 134 145 143
0.393418 0.238934 1.022 138 149 147
0.393764 0.238467 1.02 138 149 147
0.394881 0.238467 1.02 135 146 145
0.395221 0.237999 1.018 136 147 146
0.395946 0.237765 1.017 136 146 148
0.396668 0.237531 1.016 136 146 148
0.397389 0.237298 1.015 136 146 148
0.398107 0.237064 1.014 136 146 148
0.398824 0.23683 1.013 136 146 148
0.399143 0.236362 1.011 135 145 147
0.40025 0.236362 1.011 134 144 146
0.400959 0.236129 1.01 135 145 147
0.401667 0.235895 1.009 133 143 145
0.402771 0.235895 1.009 131 141 143
0.403876 0.235895 1.009 134 145 144
0.40498 0.235895 1.009 134 145 144
0.406085 0.235895 1.009 134 145 144
0.407189 0.235895 1.009 137 148 147
0.408293 0.235895 1.009 136 147 146
0.409804 0.236129 1.01 134 145 144
0.411316 0.236362 1.011 135 146 145
0.412423 0.236362 1.011 135 146 145
0.41312 0.236129 1.01 136 147 145
0.414226 0.236129 1.01 136 147 145
0.41492 0.235895 1.009 135 144 142
0.415612 0.235661 1.008 133 142 140
0.416716 0.235661 1.008 133 142 140
0.41699 0.235193 1.006 132 141 139
0.417676 0.23496 1.005 137 146 144
0.418359 0.234726 1.004 135 144 142
0.41904 0.234492 1.003 133 142 140
0.420138 0.234492 1.003 135 144 142
0.420396 0.234024 1.001 136 145 143
0.421492 0.234024 1.001 135 144 142
0.422587 0.234024 1.001 135 144 142
0.423683 0.234024 1.001 133 142 140
0.424354 0.233791 1 133 142 140
0.425874 0.234024 1.001 135 144 142
0.426544 0.233791 1 136 145 144
0.427638 0.233791 1 137 146 145
0.428733 0.233791 1 136 145 144
0.429827 0.233791 1 135 144 143
0.430922 0.233791 1 133 142 141
0.432017 0.233791 1 133 142 141
0.433111 0.233791 1 131 140 139
0.434206 0.233791 1 131 140 139
0.4353 0.233791 1 139 147 149
0.436395 0.233791 1 135 143 145
0.43749 0.233791 1 109 118 122
0.439023 0.234024 1.001 91 100 104
0.440118 0.234024 1.001 93 105 107
0.441214 0.234024 1.001 97 109 111
0.44231 0.234024 1.001 91 103 105
0.442963 0.233791 1 89 101 103
0.444501 0.234024 1.001 89 100 99
0.445597 0.234024 1.001 72 83 82
0.446693 0.234024 1.001 71 82 80
0.447788 0.234024 1.001 88 99 97
0.448884 0.234024 1.001 88 100 95
0.450429 0.234258 1.002 88 100 95
0.451977 0.234492 1.003 88 100 95
0.453526 0.234726 1.004 89 101 96
0.455078 0.23496 1.005 87 101 96
0.456632 0.235193 1.006 89 103 98
0.458188 0.235427 1.007 86 101 93
0.460203 0.235895 1.009 84 99 91
0.461764 0.236129 1.01 83 98 90
0.463328 0.236362 1.011 83 98 90
0.465354 0.23683 1.013 82 97 89
0.466923 0.237064 1.014 82 97 89
0.468494 0.237298 1.015 80 100 91
0.470068 0.237531 1.016 81 101 92
0.471644 0.237765 1.017 80 100 91
0.473222 0.237999 1.018 79 99 90
0.474802 0.238233 1.019 79 99 90
0.476385 0.238467 1.02 78 98 89
0.478437 0.238934 1.022 80 98 89
0.479556 0.238934 1.022 88 106 97
0.121988 0.288675 1.229 137 133 121
0.122631 0.287031 1.222 150 147 137
0 0 0 151 148 138
0 0 0 156 152 145
0 0 0 157 153 146
0.125782 0.282098 1.201 153 153 147
0.126673 0.281159 1.197 151 151 145
0.12777 0.280689 1.195 152 154 148
0.128646 0.279749 1.191 154 156 150
0.129731 0.27928 1.189 150 156 149
0.130592 0.27834 1.185 150 156 149
0.131666 0.27787 1.183 147 155 148
0.132512 0.276931 1.179 147 155 148
0.133462 0.276226 1.176 147 154 150
0.134291 0.275286 1.172 147 154 150
0.135227 0.274582 1.169 148 155 151
0.136156 0.273877 1.166 149 156 152
0.137314 0.273642 1.165 149 156 152
0.138233 0.272938 1.162 149 156 152
0.139264 0.272468 1.16 149 156 152
0.140413 0.272233 1.159 149 156 152
0.141437 0.271763 1.157 149 155 154
0.142334 0.271059 1.154 149 155 154
0.143597 0.271059 1.154 147 156 154
0.14486 0.271059 1.154 147 156 154
0.145996 0.270824 1.153 147 156 154
0.147131 0.270589 1.152 147 156 154
0.148263 0.270354 1.151 146 155 154
0.149523 0.270354 1.151 147 156 155
0.150652 0.270119 1.15 147 156 155
0.151778 0.269884 1.149 146 155 154
0.153036 0.269884 1.149 145 154 152
0.154294 0.269884 1.149 145 154 152
0.155281 0.269414 1.147 147 156 154
0.156536 0.269414 1.147 148 157 155
0.157517 0.268945 1.145 148 157 155
0.15877 0.268945 1.145 146 155 153
0.159604 0.26824 1.142 144 153 151
0.160713 0.268005 1.141 144 153 151
0.16182 0.26777 1.14 145 154 153
0.162925 0.267535 1.139 147 156 155
0.164028 0.2673 1.138 148 157 156
0.165128 0.267065 1.137 150 159 158
0.166226 0.266831 1.136 150 156 156
0.16747 0.266831 1.136 149 155 155
0.168713 0.266831 1.136 149 155 155
0.169807 0.266596 1.135 150 156 156
0.171049 0.266596 1.135 152 158 157
0.172292 0.266596 1.135 152 158 157
0.173534 0.266596 1.135 152 158 157
0.17493 0.266831 1.136 150 156 155
0.176174 0.266831 1.136 149 155 154
0.177417 0.266831 1.136 149 155 154
0.178661 0.266831 1.136 146 155 154
0.179904 0.266831 1.136 146 155 154
0.181148 0.266831 1.136 146 155 154
0.182552 0.267065 1.137 146 155 154
0.183796 0.267065 1.137 144 153 152
0.185041 0.267065 1.137 147 156 155
0.186286 0.267065 1.137 148 157 156
0.187695 0.2673 1.138 146 155 154
0.189107 0.267535 1.139 147 156 155
0.190353 0.267535 1.139 147 156 155
0.191768 0.26777 1.14 146 155 154
0.192847 0.267535 1.139 145 154 153
0.194094 0.267535 1.139 145 154 153
0.19534 0.267535 1.139 145 154 153
0.196415 0.2673 1.138 146 155 154
0.197487 0.267065 1.137 146 155 154
0.198731 0.267065 1.137 148 154 154
0.1998 0.266831 1.136 147 153 153
0.200866 0.266596 1.135 147 153 153
0.201753 0.266126 1.133 148 154 154
0.202455 0.265421 1.13 149 155 155
0.203512 0.265186 1.129 148 154 154
0.204204 0.264482 1.126 146 152 152
0.205071 0.264012 1.124 148 154 154
0.205934 0.263542 1.122 146 152 152
0.206978 0.263307 1.121 146 152 152
0.208019 0.263072 1.12 147 153 152
0.209245 0.263072 1.12 146 152 151
0.210283 0.262837 1.119 148 154 153
0.211508 0.262837 1.119 149 155 154
0.212733 0.262837 1.119 144 150 149
0.213958 0.262837 1.119 149 155 154
0.215183 0.262837 1.119 147 156 154
0.216408 0.262837 1.119 146 155 153
0.217438 0.262603 1.118 145 154 152
0.218662 0.262603 1.118 147 156 154
0.219689 0.262368 1.117 148 157 155
0.220714 0.262133 1.116 146 155 153
0.221736 0.261898 1.115 145 156 155
0.222757 0.261663 1.114 141 152 151
0.223574 0.261193 1.112 137 147 149
0.224791 0.261193 1.112 143 153 155
0.225805 0.260958 1.111 146 154 156
0.226817 0.260724 1.11 146 154 156
0.227827 0.260489 1.109 145 153 155
0.229454 0.260958 1.111 143 151 153
0.230462 0.260724 1.11 142 150 152
0.231886 0.260958 1.111 142 150 152
0.233102 0.260958 1.111 144 152 154
0.234529 0.261193 1.112 147 155 157
0.235958 0.261428 1.113 146 154 156
0.23739 0.261663 1.114 147 155 157
0.238823 0.261898 1.115 145 155 157
0.240474 0.262368 1.117 145 155 157
0.241913 0.262603 1.118 144 154 156
0.243354 0.262837 1.119 142 152 154
0.244579 0.262837 1.119 141 151 153
0.245584 0.262603 1.118 142 152 154
0.246808 0.262603 1.118 143 154 153
0.248032 0.262603 1.118 144 155 154
0.24881 0.262133 1.116 144 155 154
0.249583 0.261663 1.114 144 155 154
0.250127 0.260958 1.111 144 155 154
0.250891 0.260489 1.109 142 153 152
0.251423 0.259784 1.106 142 153 152
0.251948 0.259079 1.103 143 154 153
0.252697 0.25861 1.101 144 155 154
0.25344 0.25814 1.099 144 155 154
0.254412 0.257905 1.098 144 155 154
0.255614 0.257905 1.098 144 155 154
0.256816 0.257905 1.098 143 154 153
0.258252 0.25814 1.099 142 153 152
0.259455 0.25814 1.099 141 154 153
0.261133 0.25861 1.101 143 156 155
0.262576 0.258844 1.102 143 156 155
0.263782 0.258844 1.102 144 157 156
0.26547 0.259314 1.104 141 154 153
0.266678 0.259314 1.104 141 154 153
0.267886 0.259314 1.104 141 154 153
0.268851 0.259079 1.103 141 154 153
0.269814 0.258844 1.102 140 156 154
0.270774 0.25861 1.101 141 157 155
0.271238 0.257905 1.098 141 157 155
0.272192 0.25767 1.097 140 156 154
0.272894 0.2572 1.095 139 155 152
0.273592 0.25673 1.093 139 155 152
0.274286 0.256261 1.091 140 153 151
0.275227 0.256026 1.09 139 152 150
0.276167 0.255791 1.089 139 152 150
0.276849 0.255321 1.087 140 153 151
0.277784 0.255086 1.086 141 154 152
0.278715 0.254851 1.085 141 154 152
0.279903 0.254851 1.085 140 153 151
0.280832 0.254616 1.084 140 153 151
0.282018 0.254616 1.084 139 152 150
0.282943 0.254382 1.083 139 152 150
0.284129 0.254382 1.083 140 153 151
0.285051 0.254147 1.082 141 154 152
0.285971 0.253912 1.081 140 153 151
0.287154 0.253912 1.081 140 153 151
0.28807 0.253677 1.08 140 154 149
0.288985 0.253442 1.079 141 155 150
0.290166 0.253442 1.079 146 158 153
0.291077 0.253207 1.078 145 157 152
0.291986 0.252972 1.077 143 155 150
0.292892 0.252737 1.076 143 155 150
0.29407 0.252737 1.076 143 155 150
0.295248 0.252737 1.076 142 154 149
0.296426 0.252737 1.076 141 153 148
0.297604 0.252737 1.076 140 152 147
0.298781 0.252737 1.076 138 150 145
0.300238 0.252972 1.077 138 150 145
0.301137 0.252737 1.076 139 154 146
0.302877 0.253207 1.078 138 153 145
0.304057 0.253207 1.078 136 151 143
0.30467 0.252737 1.076 136 151 143
0.305564 0.252503 1.075 136 151 143
0.306455 0.252268 1.074 135 150 142
0.307058 0.251798 1.072 135 149 144
0.307944 0.251563 1.071 136 150 145
0.309116 0.251563 1.071 133 150 144
0.309709 0.251093 1.069 132 149 143
0.310588 0.250858 1.068 130 146 143
0.311466 0.250623 1.067 129 145 142
0.31234 0.250389 1.066 130 146 143
0.312919 0.249919 1.064 136 152 149
0.313789 0.249684 1.063 134 152 149
0.314656 0.249449 1.062 129 147 144
0.315224 0.248979 1.06 128 146 143
0.316384 0.248979 1.06 129 147 144
0.317245 0.248744 1.059 129 147 144
0.318404 0.248744 1.059 128 146 143
0.319563 0.248744 1.059 124 142 139
0.320722 0.248744 1.059 127 145 142
0.321577 0.248509 1.058 128 146 143
0.322735 0.248509 1.058 137 155 152
0.323587 0.248275 1.057 134 152 149
0.324744 0.248275 1.057 131 149 146
0.325901 0.248275 1.057 128 146 143
0.326749 0.24804 1.056 127 145 142
0.327594 0.247805 1.055 128 146 143
0.328438 0.24757 1.054 129 147 144
0.329278 0.247335 1.053 129 147 144
0.330117 0.2471 1.052 128 146 143
0.330639 0.24663 1.05 128 146 143
0.331472 0.246395 1.049 127 145 142
0.331986 0.245926 1.047 129 145 142
0.332814 0.245691 1.046 127 143 140
0.333321 0.245221 1.044 129 145 142
0.334143 0.244986 1.043 127 143 140
0.334963 0.244751 1.042 127 140 138
0.336104 0.244751 1.042 128 141 139
0.336921 0.244516 1.041 130 146 143
0.337736 0.244282 1.04 129 145 142
0.3392 0.244516 1.041 129 145 142
0.340012 0.244282 1.04 129 145 142
0.341151 0.244282 1.04 131 147 144
0.342289 0.244282 1.04 132 148 145
0.343427 0.244282 1.04 130 148 145
0.344235 0.244047 1.039 131 149 146
0.345372 0.244047 1.039 135 153 150
0.346176 0.243812 1.038 134 152 149
0.346977 0.243577 1.037 134 152 149
0.348112 0.243577 1.037 134 152 149
0.348574 0.243107 1.035 134 150 147
0.349707 0.243107 1.035 133 149 146
0.350162 0.242637 1.033 134 150 147
0.351292 0.242637 1.033 136 152 149
0.352082 0.242402 1.032 136 152 149
0.352869 0.242168 1.031 134 150 147
0.353998 0.242168 1.031 133 149 146
0.354782 0.241933 1.03 133 149 146
0.355909 0.241933 1.03 133 149 146
0.35669 0.241698 1.029 133 149 146
0.357469 0.241463 1.028 136 149 147
0.358594 0.241463 1.028 139 152 150
0.359719 0.241463 1.028 139 152 150
0.360845 0.241463 1.028 136 149 147
0.36197 0.241463 1.028 136 149 147
0.362742 0.241228 1.027 136 149 147
0.363866 0.241228 1.027 136 149 147
0.364635 0.240993 1.026 136 149 147
0.365758 0.240993 1.026 138 151 149
0.366881 0.240993 1.026 139 152 150
0.368004 0.240993 1.026 136 149 147
0.368767 0.240758 1.025 134 147 145
0.369528 0.240523 1.024 135 146 144
0.370649 0.240523 1.024 137 148 146
0.37177 0.240523 1.024 138 149 147
0.372891 0.240523 1.024 138 149 147
0.374012 0.240523 1.024 137 148 146
0.375133 0.240523 1.024 136 147 145
0.376621 0.240758 1.025 134 147 145
0.377743 0.240758 1.025 133 146 144
0.379235 0.240993 1.026 131 144 142
0.379987 0.240758 1.025 131 144 142
0.381109 0.240758 1.025 134 147 146
0.381858 0.240523 1.024 135 148 147
0.382979 0.240523 1.024 135 148 147
0.3841 0.240523 1.024 132 145 144
0.384468 0.240054 1.022 132 145 144
0.385587 0.240054 1.022 131 144 143
0.386327 0.239819 1.021 131 144 143
0.387065 0.239584 1.02 131 144 143
0.388182 0.239584 1.02 134 145 143
0.388535 0.239114 1.018 136 147 145
0.389649 0.239114 1.018 135 146 144
0.39038 0.238879 1.017 134 145 143
0.391108 0.238644 1.016 138 149 147
0.391834 0.238409 1.015 137 148 146
0.392945 0.238409 1.015 135 146 145
0.39328 0.23794 1.013 136 147 146
0.393999 0.237705 1.012 136 146 148
0.394716 0.23747 1.011 136 146 148
0.395823 0.23747 1.011 136 146 148
0.396537 0.237235 1.01 135 145 147
0.397249 0.237 1.009 136 146 148
0.397959 0.236765 1.008 136 146 148
0.399062 0.236765 1.008 135 145 147
0.400165 0.236765 1.008 135 145 147
0.400472 0.236295 1.006 133 143 145
0.401574 0.236295 1.006 136 146 148
0.402675 0.236295 1.006 138 149 148
0.403776 0.236295 1.006 135 146 145
0.404877 0.236295 1.006 134 145 144
0.406382 0.23653 1.007 136 147 146
0.407484 0.23653 1.007 135 146 145
0.408992 0.236765 1.008 135 146 145
0.410095 0.236765 1.008 136 147 146
0.411199 0.236765 1.008 134 145 144
0.412302 0.236765 1.008 136 147 146
0.412585 0.236295 1.006 136 147 146
0.413686 0.236295 1.006 136 145 143
0.414375 0.236061 1.005 136 145 143
0.415062 0.235826 1.004 135 144 142
0.415746 0.235591 1.003 133 142 140
0.416429 0.235356 1.002 136 145 143
0.417109 0.235121 1.001 135 144 142
0.417787 0.234886 1 132 141 139
0.418881 0.234886 1 133 142 140
0.419556 0.234651 0.999 135 144 142
0.420649 0.234651 0.999 135 144 142
0.421743 0.234651 0.999 135 144 142
0.422836 0.234651 0.999 135 144 142
0.42393 0.234651 0.999 135 144 143
0.425023 0.234651 0.999 135 144 143
0.42569 0.234416 0.998 136 145 144
0.427211 0.234651 0.999 137 146 145
0.428304 0.234651 0.999 136 145 144
0.429398 0.234651 0.999 136 145 144
0.430491 0.234651 0.999 133 142 141
0.431585 0.234651 0.999 135 144 143
0.432678 0.234651 0.999 136 145 144
0.433772 0.234651 0.999 130 139 138
0.434865 0.234651 0.999 110 118 120
0.435959 0.234651 0.999 105 113 115
0.437052 0.234651 0.999 91 100 104
0.438584 0.234886 1 92 101 105
0.439239 0.234651 0.999 93 104 108
0.440773 0.234886 1 91 102 106
0.441868 0.234886 1 89 101 103
0.442963 0.234886 1 87 99 101
0.444057 0.234886 1 86 99 98
0.445597 0.235121 1.001 79 92 91
0.446693 0.235121 1.001 77 88 86
0.447788 0.235121 1.001 89 100 98
0.448884 0.235121 1.001 91 100 98
0.450429 0.235356 1.002 91 100 98
0.451977 0.235591 1.003 89 101 96
0.453526 0.235826 1.004 88 100 95
0.455078 0.236061 1.005 91 103 98
0.456632 0.236295 1.006 91 103 98
0.458188 0.23653 1.007 84 99 91
0.459747 0.236765 1.008 83 98 90
0.461307 0.237 1.009 83 98 90
0.463328 0.23747 1.011 83 98 90
0.465354 0.23794 1.013 80 98 89
0.466923 0.238174 1.014 80 98 89
0.468494 0.238409 1.015 79 99 90
0.470068 0.238644 1.016 81 101 92
0.47118 0.238644 1.016 77 100 90
0.472757 0.238879 1.017 76 99 89
0.474336 0.239114 1.018 78 98 89
0.476385 0.239584 1.02 76 96 87
0.477969 0.239819 1.021 80 95 87
0.118618 0.288369 1.222 131 127 113
0.119465 0.287189 1.217 130 130 119
0.1204 0.286245 1.213 156 156 145
0.121126 0.28483 1.207 165 164 156
0 0 0 161 160 152
0 0 0 156 157 149
0.123638 0.281526 1.193 156 157 149
0.12463 0.280818 1.19 152 152 146
0.125615 0.28011 1.187 156 156 150
0.126701 0.279638 1.185 154 156 150
0.127674 0.27893 1.182 155 157 151
0.12864 0.278222 1.179 151 157 150
0.1296 0.277514 1.176 150 156 149
0.130665 0.277042 1.174 148 156 149
0.131613 0.276334 1.171 148 156 149
0.132667 0.275862 1.169 148 155 151
0.133603 0.275154 1.166 148 155 151
0.134417 0.27421 1.162 146 156 151
