ply
format ascii 1.0
comment Created by Open3D
element vertex 1477
property double x
property double y
property double z
property uchar red
property uchar green
property uchar blue
end_header
0.259741 0.182266 1.121 181 178 168
0.260968 0.182266 1.121 181 178 168
0.262195 0.182266 1.121 179 176 166
0.263422 0.182266 1.121 182 179 169
0.264649 0.182266 1.121 188 182 175
0.265876 0.182266 1.121 189 183 176
0.266865 0.182103 1.12 182 174 167
0.268091 0.182103 1.12 182 174 167
0.269076 0.18194 1.119 183 175 168
0.270301 0.18194 1.119 188 180 173
0.271284 0.181778 1.118 184 177 172
0.272264 0.181615 1.117 176 169 164
0.273486 0.181615 1.117 168 161 156
0.274463 0.181453 1.116 170 163 158
0.275437 0.18129 1.115 174 168 161
0.27641 0.181127 1.114 176 170 163
0.277629 0.181127 1.114 176 170 163
0.278098 0.18064 1.111 176 170 163
0.279062 0.180477 1.11 176 171 161
0.279772 0.180152 1.108 177 172 162
0.280732 0.179989 1.107 179 174 164
0.281689 0.179827 1.106 182 177 167
0.282388 0.179502 1.104 180 175 165
0.283596 0.179502 1.104 179 174 164
0.284289 0.179176 1.102 179 174 164
0.285495 0.179176 1.102 179 174 164
0.286701 0.179176 1.102 181 176 166
0.287646 0.179014 1.101 181 176 166
0.288851 0.179014 1.101 180 175 165
0.289793 0.178851 1.1 181 176 166
0.290732 0.178689 1.099 183 176 166
0.29167 0.178526 1.098 182 175 165
0.292872 0.178526 1.098 184 178 166
0.294074 0.178526 1.098 188 182 170
0.294738 0.178201 1.096 192 186 174
0.295397 0.177876 1.094 206 200 188
0.296052 0.17755 1.092 216 207 196
0.296703 0.177225 1.09 211 202 191
0.297623 0.177063 1.089 208 199 188
0.298266 0.176737 1.087 214 205 194
0.298905 0.176412 1.085 209 199 190
0.299816 0.17625 1.084 194 184 175
0.300448 0.175925 1.082 195 185 176
0.301353 0.175762 1.081 192 182 173
0.302536 0.175762 1.081 189 182 172
0.30372 0.175762 1.081 188 181 171
0.304903 0.175762 1.081 185 178 168
0.306086 0.175762 1.081 184 177 167
0.307269 0.175762 1.081 184 177 167
0.308453 0.175762 1.081 184 177 167
0.30935 0.175599 1.08 182 177 167
0.310244 0.175437 1.079 182 177 167
0.311425 0.175437 1.079 182 177 167
0.312606 0.175437 1.079 181 176 166
0.313497 0.175274 1.078 182 177 167
0.314677 0.175274 1.078 182 177 167
0.315563 0.175112 1.077 181 176 166
0.316448 0.174949 1.076 180 175 165
0.317626 0.174949 1.076 179 177 165
0.318804 0.174949 1.076 179 177 165
0.319387 0.174624 1.074 178 176 164
0.320563 0.174624 1.074 177 175 163
0.321139 0.174299 1.072 175 173 159
0.322012 0.174136 1.071 167 165 151
0.322882 0.173973 1.07 181 177 163
0.323751 0.173811 1.069 180 176 162
0.324313 0.173486 1.067 180 176 162
0.325176 0.173323 1.066 181 177 163
0.326036 0.17316 1.065 183 179 165
0.326895 0.172998 1.064 183 179 165
0.32806 0.172998 1.064 183 179 165
0.328915 0.172835 1.063 179 175 161
0.329768 0.172673 1.062 182 178 166
0.330619 0.17251 1.061 186 182 170
0.33178 0.17251 1.061 184 178 164
0.332628 0.172347 1.06 189 183 169
0.333473 0.172185 1.059 174 165 152
0.334632 0.172185 1.059 152 143 130
0.335791 0.172185 1.059 154 148 136
0.336951 0.172185 1.059 160 154 142
0.33811 0.172185 1.059 158 153 143
0.339269 0.172185 1.059 160 155 145
0.340428 0.172185 1.059 161 156 146
0.341587 0.172185 1.059 161 156 146
0.342747 0.172185 1.059 161 156 146
0.343906 0.172185 1.059 160 155 145
0.345717 0.17251 1.061 158 153 143
0.346878 0.17251 1.061 154 149 139
0.348039 0.17251 1.061 153 148 138
0.34953 0.172673 1.062 154 149 139
0.351023 0.172835 1.063 148 143 133
0.352186 0.172835 1.063 148 143 133
0.35335 0.172835 1.063 146 143 133
0.354513 0.172835 1.063 145 142 132
0.356011 0.172998 1.064 139 138 130
0.357512 0.17316 1.065 136 135 127
0.359014 0.173323 1.066 133 132 129
0.360181 0.173323 1.066 130 129 126
0.362026 0.173648 1.068 142 139 136
0 0 0 168 167 164
0 0 0 184 183 180
0 0 0 187 186 183
0 0 0 187 186 183
0 0 0 175 174 171
0 0 0 157 155 149
0 0 0 178 176 170
0 0 0 187 183 176
0 0 0 185 181 174
0.252154 0.18333 1.12 174 171 161
0.253606 0.183494 1.121 179 176 166
0.254833 0.183494 1.121 178 175 165
0.25606 0.183494 1.121 178 175 165
0.257287 0.183494 1.121 177 174 164
0.258514 0.183494 1.121 184 181 171
0.259973 0.183657 1.122 184 181 171
0.261201 0.183657 1.122 185 182 172
0.262195 0.183494 1.121 185 182 172
0.263657 0.183657 1.122 178 175 165
0.264649 0.183494 1.121 183 178 168
0.265876 0.183494 1.121 184 179 169
0.267103 0.183494 1.121 181 176 166
0.268091 0.18333 1.12 180 175 165
0.269076 0.183166 1.119 181 176 166
0.270301 0.183166 1.119 181 176 166
0.271284 0.183002 1.118 182 176 169
0.272507 0.183002 1.118 187 181 174
0.273486 0.182839 1.117 175 169 162
0.274709 0.182839 1.117 172 166 159
0.275932 0.182839 1.117 170 166 159
0.276658 0.182511 1.115 172 168 161
0.277629 0.182348 1.114 174 170 163
0.278849 0.182348 1.114 174 170 163
0.279565 0.18202 1.112 174 170 163
0.280277 0.181693 1.11 175 171 164
0.280985 0.181366 1.108 179 174 164
0.281943 0.181202 1.107 182 177 167
0.282388 0.180711 1.104 180 175 165
0.283596 0.180711 1.104 179 174 164
0.284547 0.180547 1.103 179 174 164
0.285495 0.180383 1.102 179 174 164
0.286701 0.180383 1.102 180 175 165
0.287646 0.18022 1.101 181 176 166
0.288851 0.18022 1.101 180 175 165
0.289793 0.180056 1.1 181 176 166
0.290468 0.179729 1.098 184 177 167
0.29167 0.179729 1.098 182 175 165
0.292605 0.179565 1.097 184 178 166
0.293538 0.179401 1.096 188 182 170
0.294469 0.179238 1.095 192 186 174
0.295127 0.17891 1.093 202 196 184
0.295781 0.178583 1.091 210 204 192
0.296703 0.178419 1.09 209 203 191
0.297077 0.177928 1.087 204 198 186
0.297992 0.177764 1.086 200 194 182
0.29863 0.177437 1.084 195 188 178
0.299263 0.17711 1.082 189 182 172
0.30017 0.176946 1.081 191 184 174
0.301353 0.176946 1.081 181 174 164
0.302536 0.176946 1.081 186 179 169
0.30372 0.176946 1.081 188 181 171
0.304903 0.176946 1.081 188 181 171
0.306086 0.176946 1.081 186 179 169
0.307269 0.176946 1.081 185 178 168
0.308453 0.176946 1.081 184 177 167
0.309636 0.176946 1.081 185 178 168
0.310532 0.176782 1.08 185 178 168
0.311425 0.176619 1.079 182 177 167
0.312606 0.176619 1.079 179 174 164
0.313497 0.176455 1.078 181 176 166
0.314093 0.176128 1.076 182 177 167
0.315271 0.176128 1.076 181 176 166
0.31586 0.1758 1.074 180 175 165
0.317036 0.1758 1.074 179 176 166
0.317915 0.175637 1.073 177 174 164
0.318495 0.175309 1.071 175 173 161
0.319369 0.175145 1.07 174 172 160
0.32024 0.174982 1.069 176 172 158
0.32111 0.174818 1.068 176 172 158
0.322279 0.174818 1.068 181 177 163
0.323145 0.174654 1.067 180 176 162
0.324009 0.174491 1.066 180 176 162
0.324871 0.174327 1.065 180 176 162
0.32573 0.174163 1.064 182 178 164
0.326588 0.174 1.063 182 178 164
0.327443 0.173836 1.062 181 177 163
0.328296 0.173672 1.061 179 175 161
0.329457 0.173672 1.061 180 176 162
0.330307 0.173509 1.06 180 176 162
0.331467 0.173509 1.06 178 172 158
0.332314 0.173345 1.059 190 184 170
0.333158 0.173181 1.058 164 155 142
0.334316 0.173181 1.058 144 135 122
0.335157 0.173018 1.057 152 146 134
0.336314 0.173018 1.057 150 144 132
0.337471 0.173018 1.057 155 150 140
0.338628 0.173018 1.057 160 155 145
0.339785 0.173018 1.057 160 155 145
0.341265 0.173181 1.058 159 154 144
0.342423 0.173181 1.058 159 154 144
0.343906 0.173345 1.059 158 153 143
0.345065 0.173345 1.059 157 152 142
0.346551 0.173509 1.06 153 148 138
0.348039 0.173672 1.061 150 145 135
0.349201 0.173672 1.061 150 145 135
0.350362 0.173672 1.061 146 144 132
0.351855 0.173836 1.062 146 144 132
0.352685 0.173672 1.061 145 143 131
0.35418 0.173836 1.062 142 140 128
0.356011 0.174163 1.064 139 138 130
0.357176 0.174163 1.064 135 134 126
0.358677 0.174327 1.065 130 129 126
0.360181 0.174491 1.066 128 127 124
0.362026 0.174818 1.068 135 132 129
0.363535 0.174982 1.069 120 117 114
0 0 0 183 182 174
0 0 0 187 186 178
0 0 0 190 189 181
0 0 0 190 189 181
0 0 0 185 180 175
0 0 0 178 173 168
0 0 0 179 174 169
0 0 0 180 175 170
0 0 0 184 179 174
0 0 0 180 175 170
0 0 0 179 175 168
0 0 0 181 177 170
0.252379 0.184721 1.121 181 178 168
0.253606 0.184721 1.121 179 176 166
0.254833 0.184721 1.121 181 178 168
0.25606 0.184721 1.121 180 177 167
0.257287 0.184721 1.121 180 177 167
0.258745 0.184886 1.122 179 176 166
0.260204 0.185051 1.123 188 185 175
0.261434 0.185051 1.123 177 174 164
0.262429 0.184886 1.122 163 160 150
0.263657 0.184886 1.122 172 169 159
0.264885 0.184886 1.122 173 170 160
0.265876 0.184721 1.121 180 177 167
0.267103 0.184721 1.121 186 181 171
0.26833 0.184721 1.121 183 178 168
0.269317 0.184557 1.12 180 175 165
0 0 0 183 178 168
0 0 0 187 182 172
0 0 0 184 179 169
0.273731 0.184227 1.118 179 174 164
0.274955 0.184227 1.118 174 169 159
0.275684 0.183897 1.116 174 168 161
0.276658 0.183733 1.115 173 167 160
0.277629 0.183568 1.114 174 168 161
0.278598 0.183403 1.113 176 170 163
0.279314 0.183074 1.111 175 170 160
0.280277 0.182909 1.11 177 172 162
0.280985 0.182579 1.108 179 174 164
0.281943 0.182414 1.107 179 174 164
0.282643 0.182085 1.105 180 175 165
0.283596 0.18192 1.104 179 174 164
0.284547 0.181755 1.103 179 174 164
0.285236 0.181426 1.101 179 174 164
0.286441 0.181426 1.101 180 175 165
0.287646 0.181426 1.101 180 175 165
0.288589 0.181261 1.1 181 176 166
0.289266 0.180931 1.098 182 177 167
0.290468 0.180931 1.098 184 177 167
0.291404 0.180767 1.097 183 176 166
0.292338 0.180602 1.096 184 178 166
0.29327 0.180437 1.095 185 179 167
0.2942 0.180272 1.094 190 184 172
0.294857 0.179943 1.092 197 191 179
0.29551 0.179613 1.09 201 191 182
0.296159 0.179284 1.088 201 191 182
0.297077 0.179119 1.087 193 182 176
0.297718 0.178789 1.085 192 181 175
0.29863 0.178624 1.084 190 179 173
0.299263 0.178295 1.082 193 182 176
0.30017 0.17813 1.081 193 182 176
0.301353 0.17813 1.081 187 176 170
0.302536 0.17813 1.081 185 178 168
0.30372 0.17813 1.081 188 181 171
0.304903 0.17813 1.081 188 181 171
0.306086 0.17813 1.081 188 181 171
0.307269 0.17813 1.081 188 181 171
0.308453 0.17813 1.081 185 178 168
0.309636 0.17813 1.081 185 178 168
0.310532 0.177965 1.08 184 177 167
0.311425 0.177801 1.079 181 176 166
0.312317 0.177636 1.078 177 172 162
0.313206 0.177471 1.077 180 175 165
0.314093 0.177306 1.076 181 176 166
0.314685 0.176977 1.074 180 175 165
0.31586 0.176977 1.074 177 172 162
0.316445 0.176647 1.072 180 175 165
0.317322 0.176482 1.071 179 174 164
0.318197 0.176317 1.07 175 173 161
0.31907 0.176153 1.069 175 173 161
0.319941 0.175988 1.068 179 175 161
0.320809 0.175823 1.067 179 175 161
0.321675 0.175658 1.066 180 176 162
0.322842 0.175658 1.066 181 177 163
0.323401 0.175329 1.064 180 176 162
0.324566 0.175329 1.064 180 176 162
0.325118 0.174999 1.062 181 177 163
0.325973 0.174834 1.061 182 178 164
0.327135 0.174834 1.061 181 177 163
0.327987 0.17467 1.06 177 173 159
0.328836 0.174505 1.059 180 176 162
0.329996 0.174505 1.059 177 173 159
0.331155 0.174505 1.059 181 175 161
0.332 0.17434 1.058 184 178 164
0.332843 0.174175 1.057 159 150 137
0.334 0.174175 1.057 150 141 128
0.335157 0.174175 1.057 152 146 134
0.335996 0.174011 1.056 152 146 134
0.337152 0.174011 1.056 152 147 137
0.338308 0.174011 1.056 159 154 144
0.339785 0.174175 1.057 159 154 144
0.340942 0.174175 1.057 155 150 140
0.342423 0.17434 1.058 158 153 143
0.343906 0.174505 1.059 157 152 142
0.345065 0.174505 1.059 154 149 139
0.346551 0.17467 1.06 153 148 138
0.348039 0.174834 1.061 150 146 134
0.349201 0.174834 1.061 148 144 132
0.350362 0.174834 1.061 146 144 132
0.351855 0.174999 1.062 146 144 132
0.352685 0.174834 1.061 144 142 130
0.35418 0.174999 1.062 142 140 128
0.356011 0.175329 1.064 137 137 126
0.357176 0.175329 1.064 135 135 124
0.358677 0.175494 1.065 123 123 117
0.360181 0.175658 1.066 124 124 118
0.362026 0.175988 1.068 133 131 125
0.363535 0.176153 1.069 126 124 118
0 0 0 184 182 183
0 0 0 184 181 171
0 0 0 188 185 175
0 0 0 181 179 167
0 0 0 181 179 167
0 0 0 179 175 168
0 0 0 179 175 168
0 0 0 179 175 168
0 0 0 180 176 169
0 0 0 184 178 171
0 0 0 184 178 171
0 0 0 183 177 170
0 0 0 186 180 173
0.252379 0.185949 1.121 188 185 175
0.25338 0.185783 1.12 185 182 172
0.254833 0.185949 1.121 174 171 161
0.25606 0.185949 1.121 164 161 151
0.257287 0.185949 1.121 172 171 163
0.258745 0.186115 1.122 164 163 155
0.259973 0.186115 1.122 157 156 148
0.261434 0.186281 1.123 159 158 150
0.262663 0.186281 1.123 168 167 159
0.263892 0.186281 1.123 175 174 166
0.264885 0.186115 1.122 163 163 152
0.266113 0.186115 1.122 171 171 160
0 0 0 174 171 161
0.26833 0.185949 1.121 175 172 162
0.269317 0.185783 1.12 165 162 152
0.270543 0.185783 1.12 167 164 154
0.271526 0.185618 1.119 172 168 156
0.272507 0.185452 1.118 169 165 153
0.273731 0.185452 1.118 173 169 157
0.274709 0.185286 1.117 175 171 159
0.275437 0.184954 1.115 176 171 161
0.276658 0.184954 1.115 174 169 159
0.277629 0.184788 1.114 170 165 155
0.278598 0.184622 1.113 173 168 158
0.279314 0.184291 1.111 173 168 158
0.28053 0.184291 1.111 176 171 161
0.281239 0.183959 1.109 179 174 164
0 0 0 179 174 164
0.283155 0.183627 1.107 180 175 165
0.283596 0.183129 1.104 181 176 166
0.284547 0.182964 1.103 180 175 165
0.285236 0.182632 1.101 179 174 164
0.286441 0.182632 1.101 180 175 165
0.287646 0.182632 1.101 181 176 166
0.288327 0.1823 1.099 184 177 167
0.289266 0.182134 1.098 185 178 168
0.290203 0.181968 1.097 184 178 166
0.290873 0.181636 1.095 185 179 167
0.292071 0.181636 1.095 186 180 168
0.293002 0.181471 1.094 186 180 168
0.293662 0.181139 1.092 189 183 171
0.294587 0.180973 1.091 190 184 172
0.295239 0.180641 1.089 191 184 174
0.295887 0.180309 1.087 189 182 172
0.296803 0.180144 1.086 190 183 173
0.297443 0.179812 1.084 190 183 173
0.298354 0.179646 1.083 190 183 173
0.299263 0.17948 1.082 189 182 172
0.30017 0.179314 1.081 190 183 173
0.301353 0.179314 1.081 190 183 173
0.302256 0.179148 1.08 185 178 168
0.30372 0.179314 1.081 186 179 169
0.304621 0.179148 1.08 186 179 169
0.305803 0.179148 1.08 185 178 168
0.307269 0.179314 1.081 184 177 167
0.308453 0.179314 1.081 183 176 166
0.30935 0.179148 1.08 183 176 166
0.310244 0.178982 1.079 184 177 167
0.311425 0.178982 1.079 182 175 165
0.312317 0.178817 1.078 178 171 161
0.312915 0.178485 1.076 179 174 164
0.313801 0.178319 1.075 181 176 166
0.314685 0.178153 1.074 176 171 161
0.315272 0.177821 1.072 176 171 161
0.31615 0.177655 1.071 180 175 165
0.31673 0.177324 1.069 177 172 162
0.3179 0.177324 1.069 177 173 161
0.318473 0.176992 1.067 177 173 161
0.319342 0.176826 1.066 179 175 163
0.320208 0.17666 1.065 177 173 161
0.321072 0.176494 1.064 180 176 162
0.322236 0.176494 1.064 180 176 162
0.323097 0.176328 1.063 180 176 162
0.323956 0.176163 1.062 181 177 163
0.324812 0.175997 1.061 181 177 163
0.325666 0.175831 1.06 181 177 163
0.326518 0.175665 1.059 182 178 164
0.327677 0.175665 1.059 177 173 159
0.328526 0.175499 1.058 179 175 161
0.329684 0.175499 1.058 179 175 161
0.330529 0.175333 1.057 186 177 164
0.331686 0.175333 1.057 172 163 150
0.332528 0.175167 1.056 158 149 136
0.333684 0.175167 1.056 155 146 133
0.334523 0.175001 1.055 148 143 133
0.335678 0.175001 1.055 150 145 135
0.336833 0.175001 1.055 153 148 138
0.337988 0.175001 1.055 158 153 143
0.339464 0.175167 1.056 158 153 143
0.340942 0.175333 1.057 154 149 139
0.342099 0.175333 1.057 157 152 142
0.343256 0.175333 1.057 155 150 140
0.345065 0.175665 1.059 153 149 137
0.346224 0.175665 1.059 152 148 136
0.347711 0.175831 1.06 146 144 132
0.348872 0.175831 1.06 146 144 132
0.350362 0.175997 1.061 146 144 132
0.351523 0.175997 1.061 146 144 132
0.352685 0.175997 1.061 142 140 128
0.35418 0.176163 1.062 139 137 125
0.355677 0.176328 1.063 136 136 125
0.357176 0.176494 1.064 136 136 125
0.358677 0.17666 1.065 141 141 135
0.360181 0.176826 1.066 126 126 120
0.362026 0.177158 1.068 126 123 120
0.363875 0.17749 1.07 130 127 124
0 0 0 168 165 162
0 0 0 185 182 179
0 0 0 177 173 161
0 0 0 180 176 164
0 0 0 180 176 164
0 0 0 181 177 165
0 0 0 181 176 166
0 0 0 182 177 167
0 0 0 182 177 167
0 0 0 182 177 167
0 0 0 189 184 174
0 0 0 195 190 180
0 0 0 191 186 176
0 0 0 177 172 162
0 0 0 161 158 148
0.253606 0.187177 1.121 165 162 152
0.254833 0.187177 1.121 178 175 165
0.25606 0.187177 1.121 156 153 143
0.257516 0.187344 1.122 150 148 142
0.258745 0.187344 1.122 158 156 150
0.259973 0.187344 1.122 154 152 146
0.261434 0.187511 1.123 156 154 148
0.262663 0.187511 1.123 150 148 142
0.263892 0.187511 1.123 149 147 141
0.264885 0.187344 1.122 162 161 153
0.266113 0.187344 1.122 156 155 147
0.267103 0.187177 1.121 158 157 149
0.26833 0.187177 1.121 159 158 150
0.269557 0.187177 1.121 156 156 145
0.270784 0.187177 1.121 156 156 145
0.271769 0.18701 1.12 160 157 147
0.272995 0.18701 1.12 165 162 152
0.274221 0.18701 1.12 169 165 153
0.275201 0.186843 1.119 167 163 151
0.276426 0.186843 1.119 175 170 160
0.277402 0.186676 1.118 174 169 159
0.278128 0.186342 1.116 175 170 160
0.279349 0.186342 1.116 174 169 159
0.280068 0.186008 1.114 172 167 157
0.281035 0.185841 1.113 175 170 160
0.281492 0.185341 1.11 179 172 162
0 0 0 178 171 161
0.283411 0.185007 1.108 178 171 161
0.283853 0.184506 1.105 178 171 161
0.284805 0.184339 1.104 179 172 162
0.285495 0.184005 1.102 181 174 164
0.286441 0.183838 1.101 181 174 164
0.287385 0.183671 1.1 182 175 165
0.288064 0.183337 1.098 182 176 164
0.289003 0.18317 1.097 182 176 164
0.289939 0.183003 1.096 183 177 165
0.290873 0.182836 1.095 185 179 167
0.291538 0.182502 1.093 185 179 167
0.292467 0.182335 1.092 186 180 168
0.293662 0.182335 1.092 186 179 169
0.294317 0.182001 1.09 189 182 172
0.294968 0.181667 1.088 189 182 172
0.295887 0.1815 1.087 189 182 172
0.296803 0.181333 1.086 189 182 172
0.297443 0.180999 1.084 191 184 174
0.29863 0.180999 1.084 193 186 176
0.299263 0.180665 1.082 191 184 174
0.30017 0.180498 1.081 190 183 173
0.301353 0.180498 1.081 190 183 173
0.302536 0.180498 1.081 190 183 173
0.30372 0.180498 1.081 188 181 171
0.304621 0.180331 1.08 186 179 169
0.30552 0.180164 1.079 185 178 168
0.306701 0.180164 1.079 185 178 168
0.307882 0.180164 1.079 183 176 166
0.309063 0.180164 1.079 183 176 166
0.310244 0.180164 1.079 184 177 167
0.310848 0.17983 1.077 182 177 167
0.311737 0.179663 1.076 181 176 166
0.312624 0.179496 1.075 180 175 165
0.313509 0.179329 1.074 181 176 166
0.314392 0.179162 1.073 180 175 165
0.314978 0.178829 1.071 180 175 165
0.315855 0.178662 1.07 179 174 164
0.316434 0.178328 1.068 179 174 164
0.317305 0.178161 1.067 179 175 163
0.318175 0.177994 1.066 177 173 161
0.319042 0.177827 1.065 176 172 160
0.319907 0.17766 1.064 176 172 160
0.321072 0.17766 1.064 179 175 161
0.321934 0.177493 1.063 180 176 162
0.322793 0.177326 1.062 180 176 162
0.323651 0.177159 1.061 181 177 163
0.324506 0.176992 1.06 179 175 161
0.325359 0.176825 1.059 172 168 154
0.326518 0.176825 1.059 181 175 161
0.327368 0.176658 1.058 179 173 159
0.328215 0.176491 1.057 178 172 158
0.329372 0.176491 1.057 177 171 157
0.330529 0.176491 1.057 183 174 161
0.331373 0.176324 1.056 171 162 149
0.332214 0.176157 1.055 156 147 136
0.333368 0.176157 1.055 155 146 135
0.334206 0.17599 1.054 148 143 133
0.335678 0.176157 1.055 151 146 136
0.336513 0.17599 1.054 157 152 142
0.337988 0.176157 1.055 157 152 142
0.339142 0.176157 1.055 155 150 140
0.34062 0.176324 1.056 154 149 139
0.342099 0.176491 1.057 154 149 139
0.343256 0.176491 1.057 154 149 139
0.344739 0.176658 1.058 153 149 137
0.346224 0.176825 1.059 152 148 136
0.347383 0.176825 1.059 148 146 134
0.348872 0.176992 1.06 146 144 132
0.350362 0.177159 1.061 146 144 132
0.351523 0.177159 1.061 143 141 129
0.352685 0.177159 1.061 141 139 127
0.35418 0.177326 1.062 138 136 124
0.356011 0.17766 1.064 136 136 125
0.357176 0.17766 1.064 137 137 126
0.359014 0.177994 1.066 133 133 127
0.360519 0.178161 1.067 127 127 121
0.362365 0.178495 1.069 123 122 119
0.364215 0.178829 1.071 132 131 128
0 0 0 153 148 143
0 0 0 186 181 176
0 0 0 176 172 160
0 0 0 177 173 161
0 0 0 177 173 161
0 0 0 179 175 163
0 0 0 179 173 161
0 0 0 182 176 164
0 0 0 183 176 166
0 0 0 184 177 167
0 0 0 188 180 173
0 0 0 182 174 167
0 0 0 163 155 148
0 0 0 153 145 138
0.252379 0.188405 1.121 155 151 144
0.253606 0.188405 1.121 155 151 144
0.254833 0.188405 1.121 155 153 147
0.256288 0.188573 1.122 159 157 151
0.257516 0.188573 1.122 143 140 137
0.258745 0.188573 1.122 126 123 120
0.260204 0.188741 1.123 118 115 112
0.261434 0.188741 1.123 104 101 98
0.262897 0.188909 1.124 95 93 93
0 0 0 120 118 118
0 0 0 126 124 124
0 0 0 134 132 132
0 0 0 149 149 143
0.268809 0.188741 1.123 146 146 140
0.270279 0.188909 1.124 156 155 147
0.271509 0.188909 1.124 155 154 146
0.272739 0.188909 1.124 148 145 135
0.27397 0.188909 1.124 170 167 157
0 0 0 172 168 156
0 0 0 169 165 153
0 0 0 175 171 159
0.278643 0.188741 1.123 175 171 159
0.279374 0.188405 1.121 178 172 160
0.28035 0.188237 1.12 178 172 160
0.281074 0.187901 1.118 174 168 156
0.28154 0.187397 1.115 175 169 157
0.282 0.186892 1.112 178 172 160
0 0 0 178 172 160
0 0 0 176 170 158
0.28411 0.185884 1.106 177 171 159
0.284805 0.185548 1.104 178 172 160
0.285495 0.185212 1.102 179 173 161
0.286441 0.185044 1.101 181 175 163
0.287385 0.184876 1.1 182 176 164
0.288064 0.18454 1.098 181 175 163
0.289003 0.184371 1.097 181 175 163
0.289674 0.184035 1.095 183 177 165
0.290607 0.183867 1.094 184 178 166
0.291271 0.183531 1.092 184 178 166
0.292467 0.183531 1.092 186 180 168
0.293393 0.183363 1.091 189 182 172
0.294317 0.183195 1.09 186 179 169
0.294968 0.182859 1.088 188 181 171
0.295887 0.182691 1.087 188 181 171
0.29653 0.182355 1.085 189 184 174
0.297443 0.182187 1.084 191 186 176
0.29863 0.182187 1.084 190 185 175
0.29954 0.182019 1.083 186 181 171
0.30017 0.181682 1.081 180 175 165
0.301353 0.181682 1.081 188 183 173
0.302536 0.181682 1.081 189 184 174
0.30372 0.181682 1.081 188 183 173
0.304621 0.181514 1.08 186 181 171
0.30552 0.181346 1.079 187 182 172
0.306701 0.181346 1.079 184 179 169
0.307597 0.181178 1.078 181 176 166
0.308777 0.181178 1.078 182 177 167
0.309669 0.18101 1.077 181 176 166
0.310559 0.180842 1.076 181 176 166
0.311447 0.180674 1.075 181 176 166
0.312333 0.180506 1.074 181 176 166
0.312925 0.18017 1.072 181 176 166
0.313805 0.180002 1.071 181 176 166
0.314684 0.179834 1.07 182 177 167
0.31556 0.179666 1.069 170 165 155
0.315841 0.179161 1.066 177 172 162
0.317008 0.179161 1.066 179 175 163
0.317876 0.178993 1.065 177 173 161
0.318742 0.178825 1.064 179 175 163
0.319907 0.178825 1.064 180 176 164
0.320468 0.178489 1.062 180 176 164
0.321328 0.178321 1.061 181 177 165
0.322489 0.178321 1.061 183 179 165
0.323651 0.178321 1.061 181 177 163
0.324812 0.178321 1.061 183 177 163
0.325359 0.177985 1.059 179 173 159
0.326518 0.177985 1.059 178 172 158
0.327058 0.177649 1.057 178 172 158
0.328215 0.177649 1.057 178 172 158
0.329372 0.177649 1.057 178 172 158
0.330529 0.177649 1.057 177 168 157
0.331373 0.177481 1.056 163 154 143
0.332214 0.177313 1.055 147 137 128
0.333052 0.177145 1.054 155 145 136
0.334206 0.177145 1.054 152 147 137
0.33536 0.177145 1.054 155 150 140
0.336513 0.177145 1.054 156 153 143
0.337667 0.177145 1.054 153 150 140
0.339142 0.177313 1.055 152 149 139
0.340297 0.177313 1.055 153 150 140
0.341776 0.177481 1.056 153 150 140
0.343256 0.177649 1.057 151 148 138
0.344739 0.177817 1.058 150 148 136
0.346224 0.177985 1.059 150 148 136
0.347383 0.177985 1.059 150 148 136
0.348872 0.178153 1.06 148 146 134
0.350362 0.178321 1.061 143 144 131
0.351855 0.178489 1.062 140 141 128
0.352685 0.178321 1.061 139 140 127
0.354513 0.178657 1.063 139 140 127
0.356011 0.178825 1.064 140 140 129
0.357847 0.179161 1.066 140 140 129
0.359014 0.179161 1.066 132 132 126
0.360857 0.179497 1.068 127 127 121
0.362365 0.179666 1.069 124 123 120
0.364215 0.180002 1.071 132 131 128
0.36607 0.180338 1.073 123 119 119
0 0 0 162 153 148
0 0 0 179 170 165
0 0 0 179 172 162
0 0 0 178 171 161
0 0 0 178 171 161
0 0 0 181 174 164
0 0 0 181 174 164
0 0 0 182 175 165
0 0 0 183 176 166
0 0 0 184 177 167
0 0 0 176 168 161
0 0 0 154 146 139
0 0 0 152 144 137
0 0 0 165 157 150
0.252379 0.189633 1.121 157 150 145
0.253832 0.189802 1.122 134 127 122
0.25506 0.189802 1.122 120 113 114
0.256288 0.189802 1.122 106 99 100
0.257516 0.189802 1.122 82 74 79
0.269288 0.19031 1.125 100 99 103
0.270519 0.19031 1.125 125 122 119
0.271751 0.19031 1.125 153 150 147
0 0 0 149 145 138
0 0 0 159 155 148
0 0 0 166 163 153
0 0 0 167 164 154
0 0 0 170 167 157
0 0 0 172 169 159
0 0 0 175 170 160
0 0 0 176 171 161
0 0 0 176 169 159
0.282045 0.188956 1.117 176 169 159
0.282253 0.18828 1.113 176 169 159
0 0 0 178 171 161
0 0 0 178 171 161
0.28411 0.187096 1.106 179 172 162
0.284805 0.186757 1.104 181 174 164
0.285495 0.186419 1.102 179 172 162
0.286441 0.18625 1.101 179 173 161
0.287385 0.186081 1.1 182 176 164
0.288064 0.185742 1.098 182 176 164
0.289003 0.185573 1.097 181 175 163
0.289674 0.185235 1.095 182 176 164
0.290342 0.184896 1.093 183 177 165
0.291271 0.184727 1.092 184 178 166
0.292199 0.184558 1.091 188 182 170
0.293124 0.184389 1.09 189 182 172
0.294047 0.18422 1.089 189 182 172
0.294697 0.183881 1.087 184 179 169
0.295615 0.183712 1.086 182 177 167
0.29653 0.183543 1.085 190 185 175
0.297443 0.183374 1.084 188 183 173
0.29863 0.183374 1.084 187 182 172
0.29954 0.183205 1.083 189 184 174
0.300448 0.183036 1.082 191 186 176
0.301353 0.182866 1.081 193 188 178
0.302536 0.182866 1.081 190 185 175
0.30372 0.182866 1.081 189 184 174
0.304621 0.182697 1.08 188 183 173
0.30552 0.182528 1.079 187 182 172
0.306417 0.182359 1.078 183 178 168
0.307311 0.18219 1.077 182 177 167
0.308204 0.182021 1.076 182 177 167
0.309094 0.181851 1.075 181 176 166
0.309982 0.181682 1.074 180 175 165
0.311158 0.181682 1.074 180 175 165
0.311752 0.181344 1.072 181 176 166
0.312633 0.181175 1.071 182 177 167
0.313512 0.181006 1.07 181 176 166
0.31439 0.180836 1.069 182 177 167
0.314969 0.180498 1.067 179 174 164
0.315841 0.180329 1.066 176 171 161
0.31671 0.18016 1.065 176 172 160
0.317578 0.179991 1.064 176 172 160
0.318443 0.179822 1.063 180 176 164
0.319306 0.179652 1.062 180 176 164
0.320166 0.179483 1.061 181 177 163
0.321328 0.179483 1.061 183 179 165
0.322185 0.179314 1.06 182 178 164
0.323346 0.179314 1.06 180 176 162
0.3242 0.179145 1.059 181 175 161
0.325359 0.179145 1.059 181 175 161
0.325901 0.178807 1.057 178 172 158
0.327058 0.178807 1.057 176 170 156
0.327905 0.178637 1.056 178 172 158
0.329061 0.178637 1.056 189 183 169
0.329904 0.178468 1.055 191 180 174
0.330745 0.178299 1.054 158 147 141
0.331899 0.178299 1.054 148 139 134
0.333052 0.178299 1.054 152 143 138
0.334206 0.178299 1.054 150 146 139
0.33536 0.178299 1.054 151 147 140
0.336513 0.178299 1.054 151 148 138
0.337667 0.178299 1.054 152 149 139
0.338821 0.178299 1.054 151 148 138
0.340297 0.178468 1.055 155 152 142
0.341776 0.178637 1.056 156 153 143
0.343256 0.178807 1.057 151 148 138
0.344413 0.178807 1.057 149 147 135
0.345897 0.178976 1.058 148 146 134
0.347383 0.179145 1.059 149 147 135
0.348872 0.179314 1.06 148 146 134
0.350362 0.179483 1.061 143 143 132
0.351523 0.179483 1.061 140 140 129
0.353017 0.179652 1.062 139 139 128
0.354513 0.179822 1.063 140 140 129
0.356011 0.179991 1.064 140 140 129
0.357847 0.180329 1.066 139 139 128
0.359351 0.180498 1.067 131 131 125
0.361195 0.180836 1.069 128 128 122
0.362704 0.181006 1.07 126 124 124
0.364215 0.181175 1.071 131 129 129
0.36607 0.181513 1.073 125 123 123
0 0 0 177 164 163
0 0 0 176 163 162
0 0 0 174 166 159
0 0 0 179 171 164
0 0 0 178 170 163
0 0 0 178 170 163
0 0 0 179 172 162
0 0 0 181 174 164
0 0 0 177 172 162
0 0 0 182 177 167
0 0 0 167 158 153
0 0 0 160 151 146
0 0 0 161 152 147
0 0 0 134 125 120
0.252379 0.190861 1.121 102 94 92
0.253606 0.190861 1.121 77 69 67
0.25506 0.191031 1.122 65 56 63
0 0 0 83 80 84
0.271751 0.191542 1.125 120 117 121
0 0 0 152 148 141
0 0 0 158 154 147
0 0 0 159 156 146
0 0 0 166 163 153
0 0 0 168 165 155
0 0 0 171 168 158
0 0 0 172 169 159
0 0 0 173 170 160
0 0 0 174 169 159
0 0 0 175 170 160
0.282 0.189329 1.112 176 171 161
0 0 0 177 172 162
0 0 0 177 172 162
0.284367 0.188477 1.107 179 174 164
0.284805 0.187967 1.104 180 175 165
0.285495 0.187626 1.102 177 172 162
0.286441 0.187456 1.101 177 171 159
0.287385 0.187285 1.1 181 175 163
0.288064 0.186945 1.098 183 177 165
0.288739 0.186604 1.096 182 176 164
0.289674 0.186434 1.095 181 175 163
0.290342 0.186094 1.093 182 176 164
0.291271 0.185923 1.092 184 178 166
0.292199 0.185753 1.091 188 182 170
0.293124 0.185583 1.09 188 182 170
0.293777 0.185242 1.088 191 185 173
0.294697 0.185072 1.087 186 182 170
0.295615 0.184902 1.086 184 180 168
0.29653 0.184732 1.085 189 185 173
0.297443 0.184561 1.084 184 180 168
0.29863 0.184561 1.084 184 180 168
0.29954 0.184391 1.083 189 185 173
0.300448 0.184221 1.082 191 187 175
0.301353 0.184051 1.081 191 187 175
0.302536 0.184051 1.081 188 184 172
0.303439 0.18388 1.08 188 184 172
0.304339 0.18371 1.079 188 184 172
0.305237 0.18354 1.078 186 182 170
0.306132 0.18337 1.077 183 179 167
0.307026 0.183199 1.076 182 178 166
0.307917 0.183029 1.075 182 178 166
0.308806 0.182859 1.074 181 177 165
0.309693 0.182688 1.073 181 177 165
0.310578 0.182518 1.072 183 179 167
0.311461 0.182348 1.071 183 179 167
0.312049 0.182007 1.069 182 178 166
0.313219 0.182007 1.069 181 177 165
0.313801 0.181667 1.067 181 177 165
0.314674 0.181497 1.066 180 176 164
0.315545 0.181326 1.065 181 177 165
0.316413 0.181156 1.064 180 176 164
0.317279 0.180986 1.063 180 176 164
0.318143 0.180816 1.062 180 176 164
0.319005 0.180645 1.061 181 177 165
0.320166 0.180645 1.061 181 177 163
0.321025 0.180475 1.06 183 179 165
0.322185 0.180475 1.06 182 178 164
0.32304 0.180305 1.059 179 175 161
0.3242 0.180305 1.059 176 172 158
0.325052 0.180135 1.058 180 176 162
0.325901 0.179964 1.057 178 172 158
0.327058 0.179964 1.057 177 171 157
0.328215 0.179964 1.057 178 172 158
0.328749 0.179624 1.055 186 180 166
0.329904 0.179624 1.055 174 165 160
0.331059 0.179624 1.055 142 133 128
0.331899 0.179454 1.054 148 141 136
0.333052 0.179454 1.054 150 143 138
0.334206 0.179454 1.054 150 146 139
0.33536 0.179454 1.054 149 145 138
0.336513 0.179454 1.054 150 147 137
0.337667 0.179454 1.054 151 148 138
0.338821 0.179454 1.054 151 148 138
0.340297 0.179624 1.055 153 150 140
0.341776 0.179794 1.056 155 152 142
0.343256 0.179964 1.057 149 146 136
0.344413 0.179964 1.057 149 147 135
0.345897 0.180135 1.058 148 146 134
0.347383 0.180305 1.059 146 143 133
0.348542 0.180305 1.059 146 143 133
0.350362 0.180645 1.061 144 144 133
0.351523 0.180645 1.061 141 141 130
0.353017 0.180816 1.062 138 140 129
0.354847 0.181156 1.064 137 139 128
0.356011 0.181156 1.064 137 139 128
0.357847 0.181497 1.066 135 137 126
0.359351 0.181667 1.067 133 134 126
0.361195 0.182007 1.069 128 129 121
0.362704 0.182178 1.07 127 125 125
0.364215 0.182348 1.071 124 122 122
0.365729 0.182518 1.072 121 119 120
0 0 0 180 166 162
0 0 0 179 165 161
0 0 0 174 166 159
0 0 0 181 173 166
0 0 0 178 171 161
0 0 0 177 170 160
0 0 0 178 171 161
0 0 0 182 175 165
0 0 0 165 159 152
0 0 0 174 168 161
0 0 0 158 151 146
0 0 0 134 127 122
0 0 0 119 109 107
0.251152 0.192089 1.121 77 67 65
0.252604 0.19226 1.122 61 52 53
0 0 0 76 73 77
0 0 0 123 120 124
0 0 0 155 150 145
0 0 0 157 152 147
0 0 0 166 163 153
0 0 0 166 163 153
0 0 0 167 164 154
0 0 0 168 165 155
0 0 0 172 169 159
0 0 0 172 169 159
0 0 0 172 169 159
0 0 0 173 170 160
0 0 0 173 170 160
0 0 0 174 171 161
0 0 0 175 172 162
0.28411 0.189519 1.106 177 174 164
0.284805 0.189176 1.104 179 174 164
0.285495 0.188833 1.102 177 172 162
0.286441 0.188662 1.101 177 172 162
0.287385 0.18849 1.1 179 174 164
0.288064 0.188148 1.098 179 175 163
0.288739 0.187805 1.096 179 175 163
0.289674 0.187634 1.095 177 173 161
0.290342 0.187291 1.093 180 176 164
0.291271 0.18712 1.092 181 177 165
0.291931 0.186777 1.09 182 178 166
0.293124 0.186777 1.09 186 182 170
0.293777 0.186434 1.088 188 184 172
0.294697 0.186263 1.087 188 184 172
0.295615 0.186091 1.086 188 184 172
0.296257 0.185749 1.084 188 184 172
0.297443 0.185749 1.084 184 180 168
0.29863 0.185749 1.084 184 180 168
0.29954 0.185577 1.083 186 182 170
0.300448 0.185406 1.082 184 180 168
0.301353 0.185235 1.081 184 180 168
0.302536 0.185235 1.081 184 180 168
0.303158 0.184892 1.079 186 182 170
0.304339 0.184892 1.079 184 180 168
0.304954 0.184549 1.077 183 179 167
0.305848 0.184378 1.076 182 178 166
0.306455 0.184035 1.074 182 178 166
0.307631 0.184035 1.074 182 178 166
0.308231 0.183692 1.072 182 178 166
0.309116 0.183521 1.071 186 182 170
0.310289 0.183521 1.071 187 183 171
0.310879 0.183178 1.069 184 180 168
0.311757 0.183007 1.068 183 179 167
0.312633 0.182836 1.067 181 177 165
0.313507 0.182664 1.066 181 177 165
0.314379 0.182493 1.065 181 177 165
0.315248 0.182322 1.064 181 177 165
0.316116 0.18215 1.063 182 178 166
0.316981 0.181979 1.062 184 180 168
0.317844 0.181808 1.061 183 179 167
0.319005 0.181808 1.061 181 177 165
0.320166 0.181808 1.061 180 176 162
0.320722 0.181465 1.059 181 177 163
0.321881 0.181465 1.059 180 176 162
0.32304 0.181465 1.059 179 175 161
0.323893 0.181293 1.058 178 172 158
0.324744 0.181122 1.057 177 171 157
0.325901 0.181122 1.057 178 172 158
0.326749 0.180951 1.056 178 172 158
0.327905 0.180951 1.056 178 172 160
0.329061 0.180951 1.056 184 178 166
0.329904 0.180779 1.055 178 169 164
0.331059 0.180779 1.055 148 139 134
0.331899 0.180608 1.054 151 144 139
0.333052 0.180608 1.054 151 144 139
0.334206 0.180608 1.054 151 145 138
0.33536 0.180608 1.054 148 142 135
0.336513 0.180608 1.054 149 146 136
0.337667 0.180608 1.054 152 149 139
0.338821 0.180608 1.054 153 150 140
0.339975 0.180608 1.054 155 152 142
0.341452 0.180779 1.055 153 150 140
0.342931 0.180951 1.056 150 147 137
0.344413 0.181122 1.057 152 150 138
0.345897 0.181293 1.058 150 148 136
0.347383 0.181465 1.059 148 145 135
0.348542 0.181465 1.059 146 143 133
0.350362 0.181808 1.061 143 143 132
0.351523 0.181808 1.061 142 142 131
0.35335 0.18215 1.063 139 141 130
0.354847 0.182322 1.064 137 139 128
0.356346 0.182493 1.065 133 135 124
0.357847 0.182664 1.066 134 136 125
0.359351 0.182836 1.067 133 133 127
0.361195 0.183178 1.069 130 130 124
0.362365 0.183178 1.069 126 124 125
0.363875 0.18335 1.07 120 118 119
0.365387 0.183521 1.071 116 114 115
0 0 0 185 172 166
0 0 0 185 172 166
0 0 0 175 169 157
0 0 0 178 172 160
0 0 0 178 172 160
0 0 0 177 171 159
0 0 0 180 175 165
0 0 0 167 162 152
0 0 0 153 147 140
0 0 0 170 164 157
0 0 0 144 135 136
0 0 0 105 96 97
0 0 0 85 76 77
0 0 0 125 122 126
0 0 0 157 151 149
0 0 0 160 154 152
0 0 0 172 169 159
0 0 0 166 163 153
0 0 0 166 163 153
0 0 0 167 164 154
0 0 0 173 170 160
0 0 0 175 172 162
0 0 0 172 169 159
0 0 0 172 169 159
0 0 0 172 169 159
0 0 0 172 169 159
0 0 0 174 171 161
0.283853 0.190558 1.105 177 174 164
0.284805 0.190385 1.104 177 174 164
0.285236 0.189868 1.101 177 174 164
0.286181 0.189695 1.1 179 174 164
0.287385 0.189695 1.1 176 171 161
0.288064 0.18935 1.098 176 171 161
0.288739 0.189005 1.096 176 171 161
0.289674 0.188833 1.095 177 173 161
0.290076 0.188316 1.092 179 175 163
0.291271 0.188316 1.092 181 177 165
0.291931 0.187971 1.09 181 177 165
0.292855 0.187798 1.089 181 177 165
0.293777 0.187626 1.088 188 184 172
0.294697 0.187453 1.087 187 183 171
0.295342 0.187109 1.085 186 182 170
0.296257 0.186936 1.084 186 182 170
0.297443 0.186936 1.084 183 179 167
0.298354 0.186764 1.083 182 178 166
0.299263 0.186591 1.082 183 179 167
0.30017 0.186419 1.081 184 180 168
0.301074 0.186246 1.08 181 177 165
0.301977 0.186074 1.079 182 178 166
0.303158 0.186074 1.079 183 179 167
0.304057 0.185901 1.078 182 178 166
0.30467 0.185556 1.076 181 177 165
0.305564 0.185384 1.075 180 176 164
0.306455 0.185212 1.074 181 177 165
0.307058 0.184867 1.072 182 178 166
0.307944 0.184694 1.071 183 179 167
0.308828 0.184522 1.07 186 182 170
0.309709 0.184349 1.069 187 183 171
0.310298 0.184004 1.067 187 183 171
0.311174 0.183832 1.066 184 180 168
0.31234 0.183832 1.066 183 179 167
0.313213 0.18366 1.065 181 177 165
0.314084 0.183487 1.064 181 177 165
0.314952 0.183315 1.063 181 177 165
0.315818 0.183142 1.062 181 177 165
0.316682 0.18297 1.061 182 178 166
0.317844 0.18297 1.061 183 179 165
0.319005 0.18297 1.061 176 172 158
0.319865 0.182797 1.06 176 172 158
0.320722 0.182625 1.059 175 171 157
0.321881 0.182625 1.059 177 171 157
0.32304 0.182625 1.059 176 170 156
0.323893 0.182452 1.058 176 170 156
0.324744 0.18228 1.057 177 171 157
0.325901 0.18228 1.057 177 171 157
0.326749 0.182107 1.056 179 173 159
0.327594 0.181935 1.055 179 173 159
0.329061 0.182107 1.056 186 180 166
0.329904 0.181935 1.055 161 153 146
0.331059 0.181935 1.055 149 141 134
0.331899 0.181763 1.054 151 145 138
0.333052 0.181763 1.054 151 145 138
0.334206 0.181763 1.054 151 146 136
0.33536 0.181763 1.054 151 146 136
0.336513 0.181763 1.054 153 148 138
0.337667 0.181763 1.054 157 152 142
0.339142 0.181935 1.055 155 152 142
0.340297 0.181935 1.055 155 152 142
0.341776 0.182107 1.056 153 150 140
0.342931 0.182107 1.056 150 147 137
0.344413 0.18228 1.057 149 147 135
0.345897 0.182452 1.058 149 147 135
0.347383 0.182625 1.059 148 146 134
0.348542 0.182625 1.059 146 144 132
0.350362 0.18297 1.061 145 143 131
0.351855 0.183142 1.062 144 142 130
0.35335 0.183315 1.063 141 141 130
0.354847 0.183487 1.064 137 137 126
0.356681 0.183832 1.066 133 134 126
0.357847 0.183832 1.066 132 133 125
0.359351 0.184004 1.067 132 132 126
0.361195 0.184349 1.069 130 130 124
0.362365 0.184349 1.069 126 124 125
0.363875 0.184522 1.07 121 119 120
0.365046 0.184522 1.07 124 122 123
0 0 0 180 168 159
0 0 0 179 167 158
0 0 0 171 165 153
0 0 0 177 171 159
0 0 0 179 173 161
0 0 0 179 173 161
0 0 0 172 165 155
0 0 0 171 164 154
0 0 0 159 151 149
0 0 0 144 136 134
0 0 0 103 94 96
0 0 0 84 75 77
0 0 0 137 133 134
0 0 0 152 147 142
0 0 0 161 156 151
0 0 0 167 164 154
0 0 0 165 162 152
0 0 0 165 162 152
0 0 0 166 163 153
0 0 0 168 165 155
0 0 0 174 171 161
0 0 0 171 168 158
0 0 0 170 167 157
0 0 0 171 168 158
0 0 0 172 169 159
0 0 0 172 169 159
0.283596 0.191594 1.104 174 171 161
0.284547 0.191421 1.103 175 172 162
0.285236 0.191074 1.101 177 174 164
0.286441 0.191074 1.101 177 172 162
0.287385 0.1909 1.1 175 170 160
0.288064 0.190553 1.098 175 170 160
0.288739 0.190206 1.096 175 170 160
0.289674 0.190032 1.095 176 172 160
0.290342 0.189685 1.093 177 173 161
0.291271 0.189512 1.092 180 176 164
0.291931 0.189165 1.09 180 176 164
0.292855 0.188991 1.089 181 177 165
0.293507 0.188644 1.087 187 183 171
0.294426 0.188471 1.086 187 183 171
0.295342 0.188297 1.085 183 179 167
0.296257 0.188123 1.084 182 178 166
0.297169 0.18795 1.083 182 178 166
0.298079 0.187776 1.082 182 178 166
0.298987 0.187603 1.081 181 177 165
0.30017 0.187603 1.081 184 180 168
0.300796 0.187256 1.079 180 176 164
0.301977 0.187256 1.079 181 177 165
0.303158 0.187256 1.079 182 178 166
0.303775 0.186909 1.077 181 177 165
0.30467 0.186735 1.076 180 176 164
0.30528 0.186388 1.074 179 175 163
0.305885 0.186041 1.072 181 177 165
0.306772 0.185867 1.071 181 177 165
0.307369 0.18552 1.069 183 179 167
0.308539 0.18552 1.069 184 180 168
0.30913 0.185173 1.067 186 182 170
0.310007 0.185 1.066 186 182 170
0.310882 0.184826 1.065 183 179 167
0.311754 0.184653 1.064 182 178 166
0.312919 0.184653 1.064 180 176 164
0.313789 0.184479 1.063 179 175 163
0.314656 0.184305 1.062 180 176 164
0.315521 0.184132 1.061 182 178 166
0.316682 0.184132 1.061 183 179 167
0.317544 0.183958 1.06 183 179 165
0.318704 0.183958 1.06 172 168 154
0.319563 0.183785 1.059 175 169 155
0.320722 0.183785 1.059 175 169 155
0.321881 0.183785 1.059 174 168 154
0.322735 0.183611 1.058 175 169 155
0.323587 0.183438 1.057 176 170 156
0.324744 0.183438 1.057 177 171 157
0.325901 0.183438 1.057 178 172 158
0.326749 0.183264 1.056 179 173 159
0.327594 0.183091 1.055 181 175 161
0.329061 0.183264 1.056 188 182 168
0.329904 0.183091 1.055 147 139 132
0.331059 0.183091 1.055 145 137 130
0.331899 0.182917 1.054 147 141 134
0.333052 0.182917 1.054 150 144 137
0.334206 0.182917 1.054 151 146 136
0.33536 0.182917 1.054 153 148 138
0.336833 0.183091 1.055 155 150 140
0.337988 0.183091 1.055 154 149 139
0.339142 0.183091 1.055 152 149 139
0.34062 0.183264 1.056 151 148 138
0.341776 0.183264 1.056 151 148 138
0.343256 0.183438 1.057 151 148 138
0.344413 0.183438 1.057 150 147 137
0.345897 0.183611 1.058 149 146 136
0.347383 0.183785 1.059 148 145 135
0.348872 0.183958 1.06 146 143 133
0.350362 0.184132 1.061 145 142 132
0.351855 0.184305 1.062 144 141 131
0.35335 0.184479 1.063 140 140 129
0.35518 0.184826 1.065 139 139 128
0.356681 0.185 1.066 141 142 134
0.357847 0.185 1.066 118 119 111
0.359688 0.185347 1.068 131 130 127
0.361195 0.18552 1.069 131 130 127
0.362365 0.18552 1.069 130 126 127
0.363535 0.18552 1.069 126 122 123
0.365046 0.185694 1.07 120 116 117
0 0 0 169 155 145
0 0 0 185 171 161
0 0 0 173 164 153
0 0 0 178 169 158
0 0 0 171 165 153
0 0 0 168 162 150
0 0 0 158 153 143
0 0 0 159 154 144
0 0 0 157 148 149
0 0 0 104 95 96
0 0 0 58 50 55
0 0 0 141 134 135
0 0 0 153 149 142
0 0 0 167 163 156
0 0 0 165 162 152
0 0 0 165 162 152
0 0 0 166 163 153
0 0 0 166 163 153
0 0 0 164 161 151
0 0 0 165 162 152
0 0 0 166 163 153
0.27952 0.193328 1.107 167 164 154
0.280478 0.193153 1.106 168 165 155
0.281689 0.193153 1.106 170 167 157
0.282388 0.192804 1.104 171 168 158
0.283596 0.192804 1.104 172 169 159
0.284547 0.192629 1.103 175 172 162
0.285236 0.19228 1.101 175 172 162
0.286441 0.19228 1.101 176 171 161
0.287124 0.19193 1.099 175 170 160
0.288064 0.191756 1.098 175 170 160
0.288739 0.191407 1.096 176 171 161
0.289674 0.191232 1.095 176 172 160
0.290342 0.190883 1.093 176 172 160
0.291271 0.190708 1.092 179 175 163
0.291931 0.190359 1.09 177 173 161
0.292855 0.190184 1.089 179 175 163
0.293507 0.189835 1.087 182 178 166
0.294426 0.18966 1.086 183 179 167
0.29507 0.189311 1.084 179 175 163
0.296257 0.189311 1.084 180 176 164
0.296894 0.188962 1.082 180 176 164
0.297803 0.188787 1.081 182 178 166
0.298987 0.188787 1.081 183 179 167
0.299892 0.188612 1.08 173 169 157
0.300796 0.188438 1.079 172 168 156
0.301697 0.188263 1.078 180 176 164
0.302877 0.188263 1.078 181 177 165
0.303493 0.187914 1.076 180 176 164
0.304387 0.187739 1.075 179 175 163
0.30528 0.187564 1.074 176 172 160
0.305599 0.18704 1.071 179 175 163
0.306485 0.186866 1.07 180 176 164
0.307369 0.186691 1.069 183 179 167
0.30825 0.186517 1.068 190 186 174
0.30884 0.186167 1.066 186 182 170
0.309716 0.185993 1.065 184 180 168
0.31059 0.185818 1.064 182 178 166
0.311461 0.185643 1.063 180 176 164
0.312331 0.185469 1.062 177 173 161
0.313198 0.185294 1.061 176 172 160
0.31436 0.185294 1.061 179 175 163
0.315521 0.185294 1.061 182 178 166
0.316384 0.185119 1.06 183 179 167
0.317544 0.185119 1.06 180 176 162
0.318404 0.184945 1.059 174 170 156
0.319563 0.184945 1.059 170 166 152
0.320722 0.184945 1.059 170 166 152
0.321881 0.184945 1.059 174 168 154
0.322735 0.18477 1.058 175 169 155
0.323587 0.184596 1.057 179 170 157
0.324744 0.184596 1.057 181 172 159
0.325901 0.184596 1.057 180 171 158
0.326749 0.184421 1.056 183 174 161
0.327905 0.184421 1.056 188 179 168
0.329061 0.184421 1.056 171 162 151
0.329904 0.184246 1.055 142 135 125
0.331059 0.184246 1.055 149 142 132
0.332214 0.184246 1.055 146 141 131
0.333368 0.184246 1.055 150 145 135
0.334523 0.184246 1.055 153 148 138
0.335678 0.184246 1.055 162 157 147
0.336833 0.184246 1.055 154 149 139
0.338308 0.184421 1.056 154 149 139
0.339464 0.184421 1.056 153 148 138
0.34062 0.184421 1.056 153 148 138
0.342099 0.184596 1.057 151 148 138
0.343256 0.184596 1.057 151 148 138
0.344739 0.18477 1.058 150 147 137
0.346224 0.184945 1.059 150 147 137
0.347383 0.184945 1.059 150 147 137
0.348872 0.185119 1.06 145 142 132
0.350362 0.185294 1.061 144 141 131
0.351855 0.185469 1.062 143 140 130
0.353682 0.185818 1.064 140 140 129
0.354847 0.185818 1.064 141 141 130
0.356681 0.186167 1.066 141 142 134
0.357847 0.186167 1.066 139 140 132
0.359351 0.186342 1.067 133 133 127
0.360857 0.186517 1.068 130 130 124
0.362365 0.186691 1.069 130 126 126
0.363535 0.186691 1.069 127 123 123
0.364705 0.186691 1.069 113 109 110
0.365875 0.186691 1.069 120 116 117
0 0 0 95 82 76
0 0 0 163 152 141
0 0 0 176 165 154
0 0 0 169 160 147
0 0 0 177 168 155
0 0 0 170 164 150
0 0 0 168 162 148
0 0 0 166 161 151
0 0 0 165 160 150
0 0 0 118 109 111
0 0 0 81 72 74
0 0 0 145 138 139
0 0 0 158 152 145
0 0 0 161 155 148
0 0 0 165 160 150
0 0 0 168 163 153
0 0 0 169 164 154
0 0 0 169 164 154
0 0 0 167 162 152
0 0 0 166 161 151
0 0 0 167 162 152
0 0 0 168 163 153
0.280224 0.194189 1.105 167 162 152
0.281179 0.194013 1.104 165 160 150
0.282388 0.194013 1.104 173 168 158
0.283339 0.193837 1.103 179 174 164
0.284289 0.193661 1.102 174 169 159
0.285236 0.193486 1.101 176 171 161
0.286441 0.193486 1.101 176 172 160
0.287124 0.193134 1.099 175 171 159
0.288064 0.192959 1.098 176 172 160
0.288739 0.192607 1.096 176 172 160
0.289674 0.192431 1.095 176 172 160
0.290607 0.192256 1.094 175 171 159
0.291271 0.191904 1.092 176 172 160
0.292199 0.191728 1.091 176 172 160
0.293124 0.191553 1.09 175 171 159
0.293777 0.191201 1.088 172 168 156
0.294426 0.19085 1.086 175 171 159
0.29507 0.190498 1.084 176 172 160
0.296257 0.190498 1.084 177 173 161
0.296894 0.190147 1.082 177 173 161
0.297803 0.189971 1.081 176 172 160
0.298987 0.189971 1.081 177 173 161
0.299614 0.18962 1.079 169 165 153
0.300796 0.18962 1.079 175 171 159
0.301697 0.189444 1.078 179 175 163
0.302596 0.189268 1.077 179 175 163
0.303493 0.189092 1.076 179 175 163
0.304387 0.188917 1.075 176 172 160
0.30528 0.188741 1.074 175 171 159
0.305599 0.188214 1.071 176 172 160
0.306485 0.188038 1.07 177 173 161
0.307369 0.187862 1.069 169 165 153
0.307962 0.187511 1.067 172 168 156
0.30884 0.187335 1.066 180 176 164
0.309425 0.186983 1.064 187 182 172
0.31059 0.186983 1.064 181 176 166
0.311461 0.186808 1.063 177 173 161
0.312331 0.186632 1.062 176 172 160
0.313198 0.186456 1.061 177 173 161
0.31436 0.186456 1.061 179 175 163
0.315521 0.186456 1.061 184 180 168
0.316384 0.186281 1.06 177 173 161
0.317544 0.186281 1.06 175 171 159
0.318704 0.186281 1.06 173 169 157
0.319563 0.186105 1.059 170 166 152
0.320722 0.186105 1.059 172 168 154
0.321881 0.186105 1.059 172 168 154
0.32304 0.186105 1.059 173 169 155
0.323893 0.185929 1.058 177 172 155
0.324744 0.185753 1.057 179 174 157
0.325901 0.185753 1.057 183 175 159
0.326749 0.185578 1.056 187 179 163
0.327905 0.185578 1.056 187 178 165
0.329061 0.185578 1.056 152 143 130
0.329904 0.185402 1.055 148 142 130
0.331373 0.185578 1.056 150 144 132
0.332528 0.185578 1.056 150 144 132
0.333684 0.185578 1.056 153 147 135
0.33484 0.185578 1.056 152 147 137
0.335996 0.185578 1.056 155 150 140
0.337152 0.185578 1.056 155 150 140
0.338308 0.185578 1.056 155 150 140
0.339464 0.185578 1.056 154 149 139
0.340942 0.185753 1.057 154 149 139
0.342099 0.185753 1.057 153 148 138
0.343256 0.185753 1.057 151 146 136
0.344739 0.185929 1.058 149 146 136
0.346224 0.186105 1.059 150 147 137
0.347383 0.186105 1.059 149 146 136
0.348872 0.186281 1.06 148 145 135
0.350362 0.186456 1.061 143 143 132
0.351855 0.186632 1.062 141 141 130
0.35335 0.186808 1.063 140 140 129
0.354847 0.186983 1.064 141 141 130
0.356011 0.186983 1.064 141 140 132
0.357847 0.187335 1.066 140 139 131
0.359014 0.187335 1.066 134 134 128
0.360519 0.187511 1.067 128 128 122
0.361687 0.187511 1.067 128 127 124
0.362855 0.187511 1.067 128 127 124
0.364364 0.187686 1.068 123 119 119
0.365875 0.187862 1.069 118 114 114
0.285944 0.242259 1.37 129 116 110
0 0 0 173 162 149
0 0 0 181 170 157
0 0 0 174 168 154
0 0 0 172 166 152
0 0 0 169 165 151
0 0 0 169 165 151
0 0 0 168 164 157
0 0 0 145 141 134
0 0 0 88 81 82
0 0 0 146 139 140
0 0 0 158 152 145
0 0 0 159 153 146
0 0 0 162 155 145
0 0 0 165 158 148
0 0 0 167 160 150
0 0 0 168 161 151
0 0 0 169 162 152
0 0 0 169 162 152
0 0 0 167 162 152
0 0 0 166 161 151
0 0 0 166 161 151
0.281434 0.195399 1.105 148 143 133
0.282388 0.195222 1.104 145 140 130
0.283339 0.195045 1.103 175 170 160
0.284289 0.194869 1.102 175 168 158
0.285236 0.194692 1.101 174 167 157
0.286181 0.194515 1.1 175 169 157
0.286862 0.194161 1.098 177 171 159
0.288064 0.194161 1.098 177 171 159
0.289003 0.193984 1.097 178 172 160
0.289674 0.193631 1.095 176 172 158
0.290607 0.193454 1.094 174 170 156
0.291271 0.1931 1.092 175 171 157
0.292199 0.192923 1.091 175 171 157
0.293124 0.192747 1.09 175 171 157
0.293777 0.192393 1.088 174 170 156
