ply
format ascii 1.0
element vertex 724
property double x
property double y
property double z
property uchar red
property uchar green
property uchar blue
end_header
1.995120000000000 -0.491127000000000 8.529999999999999 34 153 200
2.004450000000000 -0.491127000000000 8.529999999999999 35 154 201
2.013790000000000 -0.491127000000000 8.529999999999999 34 150 198
2.023130000000000 -0.491127000000000 8.529999999999999 42 158 206
2.032460000000000 -0.491127000000000 8.529999999999999 46 161 207
2.039410000000000 -0.490551000000000 8.520000000000000 45 160 206
2.048730000000000 -0.490551000000000 8.520000000000000 46 152 197
2.058060000000000 -0.490551000000000 8.520000000000000 48 154 199
2.069810000000000 -0.491127000000000 8.529999999999999 68 151 198
2.079150000000000 -0.491127000000000 8.529999999999999 67 150 197
2.088480000000000 -0.491127000000000 8.529999999999999 86 151 191
2.097820000000000 -0.491127000000000 8.529999999999999 78 143 183
2.109630000000000 -0.491702000000000 8.539999999999999 138 167 184
0.000000000000000 -0.000000000000000 0.000000000000000 81 165 195
0.000000000000000 -0.000000000000000 0.000000000000000 84 168 198
1.859180000000000 -0.511153000000000 9.050000000000001 80 170 202
0.000000000000000 -0.000000000000000 0.000000000000000 78 168 200
0.000000000000000 -0.000000000000000 0.000000000000000 73 166 202
1.824200000000000 -0.493644000000000 8.740000000000000 79 172 208
1.827470000000000 -0.491950000000000 8.710000000000001 75 175 212
1.834890000000000 -0.491385000000000 8.699999999999999 74 174 211
1.840180000000000 -0.490255000000000 8.680000000000000 55 177 215
1.845420000000000 -0.489126000000000 8.660000000000000 50 172 210
1.852750000000000 -0.488561000000000 8.650000000000000 40 170 211
1.860070000000000 -0.487996000000000 8.640000000000001 44 174 215
1.865200000000000 -0.486866000000000 8.619999999999999 37 172 215
1.872460000000000 -0.486302000000000 8.609999999999999 37 172 215
1.879700000000000 -0.485737000000000 8.600000000000000 37 174 217
1.886910000000000 -0.485172000000000 8.590000000000000 40 177 220
1.894110000000000 -0.484607000000000 8.580000000000000 47 184 227
1.901280000000000 -0.484042000000000 8.570000000000000 42 179 222
1.908430000000000 -0.483478000000000 8.560000000000000 36 171 214
1.915560000000000 -0.482913000000000 8.550000000000001 34 169 212
1.922670000000000 -0.482348000000000 8.539999999999999 52 183 227
1.932020000000000 -0.482348000000000 8.539999999999999 36 167 211
1.939090000000000 -0.481783000000000 8.529999999999999 30 164 209
1.948430000000000 -0.481783000000000 8.529999999999999 32 166 211
1.957770000000000 -0.481783000000000 8.529999999999999 33 166 214
1.967100000000000 -0.481783000000000 8.529999999999999 32 165 213
1.974120000000000 -0.481218000000000 8.520000000000000 39 166 215
1.983450000000000 -0.481218000000000 8.520000000000000 34 161 210
1.992780000000000 -0.481218000000000 8.520000000000000 39 164 213
2.004450000000000 -0.481783000000000 8.529999999999999 36 161 210
2.013790000000000 -0.481783000000000 8.529999999999999 38 159 206
2.023130000000000 -0.481783000000000 8.529999999999999 38 159 206
2.030080000000000 -0.481218000000000 8.520000000000000 45 165 210
2.039410000000000 -0.481218000000000 8.520000000000000 49 169 214
2.048730000000000 -0.481218000000000 8.520000000000000 33 146 190
2.058060000000000 -0.481218000000000 8.520000000000000 39 152 196
2.067380000000000 -0.481218000000000 8.520000000000000 56 150 197
2.079150000000000 -0.481783000000000 8.529999999999999 56 150 197
2.088480000000000 -0.481783000000000 8.529999999999999 77 148 195
2.097820000000000 -0.481783000000000 8.529999999999999 74 145 192
2.107160000000000 -0.481783000000000 8.529999999999999 104 145 174
2.116500000000000 -0.481783000000000 8.529999999999999 137 178 207
0.000000000000000 -0.000000000000000 0.000000000000000 85 165 194
1.863580000000000 -0.505117000000000 9.119999999999999 76 168 200
0.000000000000000 -0.000000000000000 0.000000000000000 73 170 203
0.000000000000000 -0.000000000000000 0.000000000000000 73 170 203
1.822930000000000 -0.486286000000000 8.779999999999999 75 173 208
1.824200000000000 -0.484071000000000 8.740000000000000 75 173 208
1.827470000000000 -0.482409000000000 8.710000000000001 72 174 211
1.834890000000000 -0.481855000000000 8.699999999999999 72 174 211
1.838060000000000 -0.480194000000000 8.670000000000000 57 176 217
1.847550000000000 -0.480194000000000 8.670000000000000 63 182 223
1.852750000000000 -0.479086000000000 8.650000000000000 52 182 223
1.860070000000000 -0.478532000000000 8.640000000000001 45 175 216
1.865200000000000 -0.477424000000000 8.619999999999999 37 172 215
1.870280000000000 -0.476317000000000 8.600000000000000 40 175 218
1.877510000000000 -0.475763000000000 8.590000000000000 38 178 220
1.884720000000000 -0.475209000000000 8.580000000000000 39 179 221
1.894110000000000 -0.475209000000000 8.580000000000000 26 168 210
1.901280000000000 -0.474655000000000 8.570000000000000 30 172 214
1.908430000000000 -0.474101000000000 8.560000000000000 30 171 215
1.915560000000000 -0.473547000000000 8.550000000000001 30 171 215
1.922670000000000 -0.472994000000000 8.539999999999999 48 183 231
1.929760000000000 -0.472440000000000 8.529999999999999 21 156 204
1.939090000000000 -0.472440000000000 8.529999999999999 28 162 213
1.946150000000000 -0.471886000000000 8.520000000000000 31 165 216
1.955470000000000 -0.471886000000000 8.520000000000000 32 166 217
1.964800000000000 -0.471886000000000 8.520000000000000 31 165 216
1.974120000000000 -0.471886000000000 8.520000000000000 31 165 216
1.983450000000000 -0.471886000000000 8.520000000000000 27 161 212
1.992780000000000 -0.471886000000000 8.520000000000000 36 165 214
2.002100000000000 -0.471886000000000 8.520000000000000 32 161 210
2.011430000000000 -0.471886000000000 8.520000000000000 34 160 206
2.020750000000000 -0.471886000000000 8.520000000000000 33 159 205
2.030080000000000 -0.471886000000000 8.520000000000000 32 153 200
2.039410000000000 -0.471886000000000 8.520000000000000 23 144 191
2.048730000000000 -0.471886000000000 8.520000000000000 34 151 197
2.058060000000000 -0.471886000000000 8.520000000000000 38 155 201
2.067380000000000 -0.471886000000000 8.520000000000000 52 153 199
2.076710000000000 -0.471886000000000 8.520000000000000 50 151 197
2.086040000000000 -0.471886000000000 8.520000000000000 67 150 197
2.097820000000000 -0.472440000000000 8.529999999999999 66 149 196
2.107160000000000 -0.472440000000000 8.529999999999999 85 136 175
2.116500000000000 -0.472440000000000 8.529999999999999 73 124 163
2.125830000000000 -0.472440000000000 8.529999999999999 150 173 189
0.000000000000000 -0.000000000000000 0.000000000000000 77 164 197
1.863760000000000 -0.497842000000000 9.170000000000000 68 167 200
1.849270000000000 -0.491327000000000 9.050000000000001 71 170 203
0.000000000000000 -0.000000000000000 0.000000000000000 65 170 204
1.825720000000000 -0.479926000000000 8.840000000000000 73 178 212
1.820860000000000 -0.476126000000000 8.770000000000000 86 190 227
1.824200000000000 -0.474497000000000 8.740000000000000 76 180 217
1.827470000000000 -0.472869000000000 8.710000000000001 69 175 213
1.832780000000000 -0.471783000000000 8.690000000000000 68 174 212
1.840180000000000 -0.471240000000000 8.680000000000000 56 175 216
1.845420000000000 -0.470154000000000 8.660000000000000 59 178 219
1.852750000000000 -0.469611000000000 8.650000000000000 54 186 227
1.857920000000000 -0.468525000000000 8.630000000000001 45 177 218
1.865200000000000 -0.467982000000000 8.619999999999999 35 172 215
1.870280000000000 -0.466897000000000 8.600000000000000 34 171 214
1.877510000000000 -0.466354000000000 8.590000000000000 26 168 210
1.884720000000000 -0.465811000000000 8.580000000000000 28 170 212
1.894110000000000 -0.465811000000000 8.580000000000000 31 174 218
1.901280000000000 -0.465268000000000 8.570000000000000 35 178 222
1.908430000000000 -0.464725000000000 8.560000000000000 31 172 216
1.915560000000000 -0.464182000000000 8.550000000000001 31 172 216
1.922670000000000 -0.463639000000000 8.539999999999999 35 173 220
1.929760000000000 -0.463096000000000 8.529999999999999 28 166 213
1.939090000000000 -0.463096000000000 8.529999999999999 31 166 214
1.946150000000000 -0.462553000000000 8.520000000000000 31 166 214
1.955470000000000 -0.462553000000000 8.520000000000000 31 166 214
1.964800000000000 -0.462553000000000 8.520000000000000 30 165 213
1.974120000000000 -0.462553000000000 8.520000000000000 28 163 211
1.983450000000000 -0.462553000000000 8.520000000000000 27 162 210
1.992780000000000 -0.462553000000000 8.520000000000000 30 163 211
2.002100000000000 -0.462553000000000 8.520000000000000 29 162 210
2.011430000000000 -0.462553000000000 8.520000000000000 31 158 207
2.020750000000000 -0.462553000000000 8.520000000000000 31 158 207
2.030080000000000 -0.462553000000000 8.520000000000000 32 158 204
2.039410000000000 -0.462553000000000 8.520000000000000 29 155 201
2.046330000000000 -0.462010000000000 8.510000000000000 33 152 199
2.055640000000000 -0.462010000000000 8.510000000000000 35 154 201
2.064960000000000 -0.462010000000000 8.510000000000000 49 152 200
2.076710000000000 -0.462553000000000 8.520000000000000 48 151 199
2.086040000000000 -0.462553000000000 8.520000000000000 64 149 197
2.095360000000000 -0.462553000000000 8.520000000000000 64 149 197
2.107160000000000 -0.463096000000000 8.529999999999999 85 147 188
2.116500000000000 -0.463096000000000 8.529999999999999 82 144 185
2.125830000000000 -0.463096000000000 8.529999999999999 105 140 162
2.135170000000000 -0.463096000000000 8.529999999999999 124 159 181
0.000000000000000 -0.000000000000000 0.000000000000000 68 162 194
0.000000000000000 -0.000000000000000 0.000000000000000 71 165 197
0.000000000000000 -0.000000000000000 0.000000000000000 63 169 201
0.000000000000000 -0.000000000000000 0.000000000000000 68 174 206
0.000000000000000 -0.000000000000000 0.000000000000000 64 174 207
1.817450000000000 -0.468115000000000 8.800000000000001 61 171 204
1.820860000000000 -0.466520000000000 8.770000000000000 71 180 216
1.824200000000000 -0.464924000000000 8.740000000000000 74 183 219
1.827470000000000 -0.463328000000000 8.710000000000001 64 176 216
1.834890000000000 -0.462796000000000 8.699999999999999 63 175 215
1.840180000000000 -0.461732000000000 8.680000000000000 56 175 216
1.845420000000000 -0.460668000000000 8.660000000000000 62 181 222
1.850610000000000 -0.459604000000000 8.640000000000001 43 174 218
1.857920000000000 -0.459072000000000 8.630000000000001 40 171 215
1.863030000000000 -0.458008000000000 8.609999999999999 37 174 217
1.870280000000000 -0.457476000000000 8.600000000000000 37 174 217
1.877510000000000 -0.456944000000000 8.590000000000000 19 156 199
1.884720000000000 -0.456413000000000 8.580000000000000 18 155 198
1.891900000000000 -0.455881000000000 8.570000000000000 23 164 208
1.899060000000000 -0.455349000000000 8.560000000000000 28 169 213
1.906200000000000 -0.454817000000000 8.550000000000001 27 170 214
1.913320000000000 -0.454285000000000 8.539999999999999 28 171 215
1.920420000000000 -0.453753000000000 8.529999999999999 33 172 216
1.929760000000000 -0.453753000000000 8.529999999999999 32 171 215
1.939090000000000 -0.453753000000000 8.529999999999999 32 168 213
1.946150000000000 -0.453221000000000 8.520000000000000 32 168 213
1.955470000000000 -0.453221000000000 8.520000000000000 31 167 212
1.964800000000000 -0.453221000000000 8.520000000000000 30 166 211
1.974120000000000 -0.453221000000000 8.520000000000000 27 163 208
1.983450000000000 -0.453221000000000 8.520000000000000 25 161 206
1.990440000000000 -0.452689000000000 8.510000000000000 27 160 208
2.002100000000000 -0.453221000000000 8.520000000000000 28 161 209
2.011430000000000 -0.453221000000000 8.520000000000000 30 159 208
2.020750000000000 -0.453221000000000 8.520000000000000 29 158 207
2.030080000000000 -0.453221000000000 8.520000000000000 26 154 200
2.037010000000000 -0.452689000000000 8.510000000000000 20 148 194
2.046330000000000 -0.452689000000000 8.510000000000000 36 157 204
2.055640000000000 -0.452689000000000 8.510000000000000 32 153 200
2.064960000000000 -0.452689000000000 8.510000000000000 48 151 199
2.076710000000000 -0.453221000000000 8.520000000000000 47 150 198
2.086040000000000 -0.453221000000000 8.520000000000000 65 147 196
2.095360000000000 -0.453221000000000 8.520000000000000 66 148 197
2.107160000000000 -0.453753000000000 8.529999999999999 79 148 190
2.116500000000000 -0.453753000000000 8.529999999999999 82 151 193
2.125830000000000 -0.453753000000000 8.529999999999999 95 138 169
2.135170000000000 -0.453753000000000 8.529999999999999 106 149 180
0.000000000000000 -0.000000000000000 0.000000000000000 68 167 198
1.835300000000000 -0.470459000000000 9.029999999999999 56 170 200
0.000000000000000 -0.000000000000000 0.000000000000000 59 173 203
0.000000000000000 -0.000000000000000 0.000000000000000 60 175 207
1.817450000000000 -0.458476000000000 8.800000000000001 57 172 204
1.820860000000000 -0.456913000000000 8.770000000000000 51 169 205
1.824200000000000 -0.455350000000000 8.740000000000000 45 163 199
1.827470000000000 -0.453787000000000 8.710000000000001 51 170 211
1.834890000000000 -0.453266000000000 8.699999999999999 58 177 218
1.840180000000000 -0.452224000000000 8.680000000000000 50 170 215
1.845420000000000 -0.451182000000000 8.660000000000000 49 169 214
1.850610000000000 -0.450140000000000 8.640000000000001 42 169 213
1.857920000000000 -0.449619000000000 8.630000000000001 44 171 215
1.863030000000000 -0.448577000000000 8.609999999999999 43 174 218
1.870280000000000 -0.448056000000000 8.600000000000000 43 174 218
1.877510000000000 -0.447535000000000 8.590000000000000 37 174 217
1.884720000000000 -0.447014000000000 8.580000000000000 40 177 220
1.891900000000000 -0.446493000000000 8.570000000000000 24 164 206
1.899060000000000 -0.445972000000000 8.560000000000000 26 166 208
1.906200000000000 -0.445451000000000 8.550000000000001 30 170 212
1.913320000000000 -0.444930000000000 8.539999999999999 31 171 213
1.920420000000000 -0.444409000000000 8.529999999999999 32 171 215
1.929760000000000 -0.444409000000000 8.529999999999999 33 172 216
1.939090000000000 -0.444409000000000 8.529999999999999 27 163 208
1.946150000000000 -0.443888000000000 8.520000000000000 23 159 204
1.955470000000000 -0.443888000000000 8.520000000000000 32 167 215
1.964800000000000 -0.443888000000000 8.520000000000000 32 167 215
1.974120000000000 -0.443888000000000 8.520000000000000 27 162 210
1.981120000000000 -0.443367000000000 8.510000000000000 24 159 207
1.990440000000000 -0.443367000000000 8.510000000000000 27 160 208
1.999750000000000 -0.443367000000000 8.510000000000000 27 160 208
2.009070000000000 -0.443367000000000 8.510000000000000 28 161 209
2.018380000000000 -0.443367000000000 8.510000000000000 28 161 209
2.027700000000000 -0.443367000000000 8.510000000000000 25 155 201
2.037010000000000 -0.443367000000000 8.510000000000000 26 156 202
2.046330000000000 -0.443367000000000 8.510000000000000 34 155 202
2.055640000000000 -0.443367000000000 8.510000000000000 34 155 202
2.064960000000000 -0.443367000000000 8.510000000000000 50 154 199
2.076710000000000 -0.443888000000000 8.520000000000000 44 148 193
2.086040000000000 -0.443888000000000 8.520000000000000 64 147 194
2.095360000000000 -0.443888000000000 8.520000000000000 65 148 195
2.104690000000000 -0.443888000000000 8.520000000000000 75 147 191
2.114010000000000 -0.443888000000000 8.520000000000000 78 150 194
2.123340000000000 -0.443888000000000 8.520000000000000 95 147 183
2.135170000000000 -0.444409000000000 8.529999999999999 92 144 180
2.144510000000000 -0.444409000000000 8.529999999999999 143 163 181
0.000000000000000 -0.000000000000000 0.000000000000000 94 164 195
0.000000000000000 -0.000000000000000 0.000000000000000 68 170 200
0.000000000000000 -0.000000000000000 0.000000000000000 66 168 198
0.000000000000000 -0.000000000000000 0.000000000000000 54 169 201
1.814540000000000 -0.452917000000000 8.880000000000001 60 175 207
1.813980000000000 -0.450367000000000 8.830000000000000 57 176 210
1.817450000000000 -0.448837000000000 8.800000000000001 43 162 196
1.820860000000000 -0.447307000000000 8.770000000000000 49 167 203
1.822110000000000 -0.445267000000000 8.730000000000000 49 167 203
1.827470000000000 -0.444247000000000 8.710000000000001 45 164 205
1.834890000000000 -0.443737000000000 8.699999999999999 54 173 214
1.840180000000000 -0.442716000000000 8.680000000000000 50 168 211
1.845420000000000 -0.441696000000000 8.660000000000000 51 169 212
1.850610000000000 -0.440676000000000 8.640000000000001 50 171 213
1.857920000000000 -0.440166000000000 8.630000000000001 50 171 213
1.863030000000000 -0.439146000000000 8.609999999999999 42 174 215
1.868110000000000 -0.438126000000000 8.590000000000000 42 174 215
1.875330000000000 -0.437616000000000 8.580000000000000 37 175 215
1.884720000000000 -0.437616000000000 8.580000000000000 40 178 218
1.891900000000000 -0.437106000000000 8.570000000000000 31 171 213
1.899060000000000 -0.436596000000000 8.560000000000000 35 175 217
1.906200000000000 -0.436086000000000 8.550000000000001 25 165 207
1.913320000000000 -0.435576000000000 8.539999999999999 37 177 219
1.920420000000000 -0.435066000000000 8.529999999999999 35 175 217
1.929760000000000 -0.435066000000000 8.529999999999999 35 175 217
1.939090000000000 -0.435066000000000 8.529999999999999 25 164 208
1.946150000000000 -0.434556000000000 8.520000000000000 24 163 207
1.955470000000000 -0.434556000000000 8.520000000000000 34 169 217
1.964800000000000 -0.434556000000000 8.520000000000000 31 166 214
1.974120000000000 -0.434556000000000 8.520000000000000 29 162 210
1.981120000000000 -0.434046000000000 8.510000000000000 27 160 208
1.990440000000000 -0.434046000000000 8.510000000000000 27 160 208
1.999750000000000 -0.434046000000000 8.510000000000000 30 163 211
2.009070000000000 -0.434046000000000 8.510000000000000 29 162 210
2.018380000000000 -0.434046000000000 8.510000000000000 27 160 208
2.027700000000000 -0.434046000000000 8.510000000000000 26 156 202
2.037010000000000 -0.434046000000000 8.510000000000000 26 156 202
2.046330000000000 -0.434046000000000 8.510000000000000 36 155 202
2.055640000000000 -0.434046000000000 8.510000000000000 39 158 205
2.064960000000000 -0.434046000000000 8.510000000000000 49 158 202
2.074270000000000 -0.434046000000000 8.510000000000000 40 149 193
2.083590000000000 -0.434046000000000 8.510000000000000 58 146 190
2.095360000000000 -0.434556000000000 8.520000000000000 55 143 187
2.104690000000000 -0.434556000000000 8.520000000000000 67 148 193
2.114010000000000 -0.434556000000000 8.520000000000000 75 156 201
2.123340000000000 -0.434556000000000 8.520000000000000 85 151 189
2.132670000000000 -0.434556000000000 8.520000000000000 84 150 188
2.141990000000000 -0.434556000000000 8.520000000000000 129 157 179
2.153840000000000 -0.435066000000000 8.529999999999999 147 175 197
0.000000000000000 -0.000000000000000 0.000000000000000 82 161 192
0.000000000000000 -0.000000000000000 0.000000000000000 63 169 201
1.825420000000000 -0.450677000000000 9.029999999999999 63 169 201
0.000000000000000 -0.000000000000000 0.000000000000000 56 169 201
1.810450000000000 -0.442192000000000 8.859999999999999 58 171 203
1.809880000000000 -0.439697000000000 8.810000000000000 58 172 207
1.813320000000000 -0.438200000000000 8.779999999999999 55 169 204
1.818780000000000 -0.437201000000000 8.760000000000000 53 166 203
1.824200000000000 -0.436203000000000 8.740000000000000 53 166 203
1.827470000000000 -0.434706000000000 8.710000000000001 53 165 205
1.834890000000000 -0.434207000000000 8.699999999999999 51 163 203
1.840180000000000 -0.433209000000000 8.680000000000000 58 168 208
1.845420000000000 -0.432211000000000 8.660000000000000 59 169 209
1.850610000000000 -0.431212000000000 8.640000000000001 54 171 212
1.855760000000000 -0.430214000000000 8.619999999999999 54 171 212
1.860870000000000 -0.429216000000000 8.600000000000000 41 178 216
1.868110000000000 -0.428717000000000 8.590000000000000 34 171 209
1.875330000000000 -0.428218000000000 8.580000000000000 20 163 202
1.882520000000000 -0.427719000000000 8.570000000000000 19 162 201
1.889690000000000 -0.427220000000000 8.560000000000000 30 172 214
1.896850000000000 -0.426721000000000 8.550000000000001 24 166 208
1.903980000000000 -0.426221000000000 8.539999999999999 17 159 201
1.913320000000000 -0.426221000000000 8.539999999999999 28 170 212
1.920420000000000 -0.425722000000000 8.529999999999999 26 165 209
1.929760000000000 -0.425722000000000 8.529999999999999 28 167 211
1.936820000000000 -0.425223000000000 8.520000000000000 25 164 208
1.946150000000000 -0.425223000000000 8.520000000000000 25 164 208
1.955470000000000 -0.425223000000000 8.520000000000000 28 164 209
1.964800000000000 -0.425223000000000 8.520000000000000 28 164 209
1.974120000000000 -0.425223000000000 8.520000000000000 33 163 209
1.981120000000000 -0.424724000000000 8.510000000000000 32 162 208
1.990440000000000 -0.424724000000000 8.510000000000000 30 158 204
1.999750000000000 -0.424724000000000 8.510000000000000 26 154 200
2.009070000000000 -0.424724000000000 8.510000000000000 31 159 205
2.016010000000000 -0.424225000000000 8.500000000000000 32 160 206
2.025310000000000 -0.424225000000000 8.500000000000000 32 159 203
2.034620000000000 -0.424225000000000 8.500000000000000 30 157 201
2.043920000000000 -0.424225000000000 8.500000000000000 34 158 203
2.053230000000000 -0.424225000000000 8.500000000000000 35 159 204
2.062530000000000 -0.424225000000000 8.500000000000000 42 158 201
2.074270000000000 -0.424724000000000 8.510000000000000 37 153 196
2.083590000000000 -0.424724000000000 8.510000000000000 51 153 197
2.092900000000000 -0.424724000000000 8.510000000000000 44 146 190
2.102220000000000 -0.424724000000000 8.510000000000000 60 148 192
2.111530000000000 -0.424724000000000 8.510000000000000 59 147 191
2.123340000000000 -0.425223000000000 8.520000000000000 62 140 181
2.132670000000000 -0.425223000000000 8.520000000000000 63 141 182
2.141990000000000 -0.425223000000000 8.520000000000000 106 142 167
2.151320000000000 -0.425223000000000 8.520000000000000 118 154 179
0.000000000000000 -0.000000000000000 0.000000000000000 75 161 198
0.000000000000000 -0.000000000000000 0.000000000000000 73 159 196
0.000000000000000 -0.000000000000000 0.000000000000000 60 162 199
1.815310000000000 -0.438345000000000 8.980000000000000 65 167 204
1.806850000000000 -0.433952000000000 8.890000000000001 58 166 204
1.804320000000000 -0.431023000000000 8.830000000000000 54 162 200
1.805770000000000 -0.429070000000000 8.789999999999999 58 169 206
1.811260000000000 -0.428094000000000 8.770000000000000 57 168 205
1.814630000000000 -0.426630000000000 8.740000000000000 63 164 203
1.820020000000000 -0.425653000000000 8.720000000000001 64 165 204
1.825370000000000 -0.424677000000000 8.699999999999999 68 159 200
1.832780000000000 -0.424189000000000 8.690000000000000 66 157 198
1.838060000000000 -0.423213000000000 8.670000000000000 67 163 203
1.843280000000000 -0.422237000000000 8.650000000000000 68 164 204
1.850610000000000 -0.421748000000000 8.640000000000001 51 166 203
1.855760000000000 -0.420772000000000 8.619999999999999 52 167 204
1.860870000000000 -0.419796000000000 8.600000000000000 39 176 212
1.868110000000000 -0.419308000000000 8.590000000000000 33 170 206
1.875330000000000 -0.418820000000000 8.580000000000000 21 167 204
1.882520000000000 -0.418331000000000 8.570000000000000 19 165 202
1.889690000000000 -0.417843000000000 8.560000000000000 27 171 213
1.896850000000000 -0.417355000000000 8.550000000000001 24 168 210
1.903980000000000 -0.416867000000000 8.539999999999999 23 165 207
1.913320000000000 -0.416867000000000 8.539999999999999 17 159 201
1.920420000000000 -0.416379000000000 8.529999999999999 20 162 204
1.929760000000000 -0.416379000000000 8.529999999999999 22 164 206
1.936820000000000 -0.415891000000000 8.520000000000000 23 163 205
1.946150000000000 -0.415891000000000 8.520000000000000 24 164 206
1.955470000000000 -0.415891000000000 8.520000000000000 32 162 208
1.964800000000000 -0.415891000000000 8.520000000000000 33 163 209
1.971810000000000 -0.415403000000000 8.510000000000000 35 163 209
1.981120000000000 -0.415403000000000 8.510000000000000 33 161 207
1.990440000000000 -0.415403000000000 8.510000000000000 34 161 205
1.997400000000000 -0.414915000000000 8.500000000000000 50 177 221
2.006710000000000 -0.414915000000000 8.500000000000000 49 176 220
2.016010000000000 -0.414915000000000 8.500000000000000 36 163 207
2.025310000000000 -0.414915000000000 8.500000000000000 33 160 204
2.034620000000000 -0.414915000000000 8.500000000000000 33 160 204
2.043920000000000 -0.414915000000000 8.500000000000000 34 161 205
2.053230000000000 -0.414915000000000 8.500000000000000 33 160 204
2.062530000000000 -0.414915000000000 8.500000000000000 35 159 204
2.071840000000000 -0.414915000000000 8.500000000000000 31 155 200
2.081140000000000 -0.414915000000000 8.500000000000000 38 147 191
2.090440000000000 -0.414915000000000 8.500000000000000 40 149 193
2.102220000000000 -0.415403000000000 8.510000000000000 48 146 190
2.111530000000000 -0.415403000000000 8.510000000000000 45 143 187
2.120850000000000 -0.415403000000000 8.510000000000000 54 140 184
2.130160000000000 -0.415403000000000 8.510000000000000 51 137 181
2.141990000000000 -0.415891000000000 8.520000000000000 93 136 167
2.151320000000000 -0.415891000000000 8.520000000000000 105 148 179
0.000000000000000 -0.000000000000000 0.000000000000000 68 159 200
0.000000000000000 -0.000000000000000 0.000000000000000 76 167 208
0.000000000000000 -0.000000000000000 0.000000000000000 66 166 208
1.807230000000000 -0.426600000000000 8.940000000000000 65 165 207
1.800750000000000 -0.422782000000000 8.859999999999999 60 165 206
1.800230000000000 -0.420397000000000 8.810000000000000 57 162 203
1.803710000000000 -0.418965000000000 8.779999999999999 63 164 203
1.809190000000000 -0.418011000000000 8.760000000000000 61 162 201
1.812550000000000 -0.416579000000000 8.730000000000000 95 166 201
1.817930000000000 -0.415625000000000 8.710000000000001 98 169 204
1.825370000000000 -0.415148000000000 8.699999999999999 112 166 197
1.830680000000000 -0.414193000000000 8.680000000000000 111 165 196
1.835940000000000 -0.413239000000000 8.660000000000000 93 161 192
1.841150000000000 -0.412284000000000 8.640000000000001 86 154 185
1.848470000000000 -0.411807000000000 8.630000000000001 56 154 189
1.853610000000000 -0.410853000000000 8.609999999999999 52 150 185
1.858710000000000 -0.409899000000000 8.590000000000000 26 158 192
1.865930000000000 -0.409421000000000 8.580000000000000 31 163 197
1.875330000000000 -0.409421000000000 8.580000000000000 14 168 203
1.882520000000000 -0.408944000000000 8.570000000000000 13 167 202
1.889690000000000 -0.408467000000000 8.560000000000000 18 167 208
1.896850000000000 -0.407990000000000 8.550000000000001 17 166 207
1.903980000000000 -0.407513000000000 8.539999999999999 18 165 206
1.913320000000000 -0.407513000000000 8.539999999999999 17 164 205
1.920420000000000 -0.407035000000000 8.529999999999999 22 164 206
1.929760000000000 -0.407035000000000 8.529999999999999 23 165 207
1.936820000000000 -0.406558000000000 8.520000000000000 32 167 210
1.946150000000000 -0.406558000000000 8.520000000000000 30 165 208
1.955470000000000 -0.406558000000000 8.520000000000000 34 163 207
1.964800000000000 -0.406558000000000 8.520000000000000 34 163 207
1.971810000000000 -0.406081000000000 8.510000000000000 35 162 206
1.981120000000000 -0.406081000000000 8.510000000000000 34 161 205
1.988100000000000 -0.405604000000000 8.500000000000000 36 160 205
1.997400000000000 -0.405604000000000 8.500000000000000 37 161 206
2.006710000000000 -0.405604000000000 8.500000000000000 36 163 207
2.013640000000000 -0.405127000000000 8.490000000000000 36 163 207
2.022930000000000 -0.405127000000000 8.490000000000000 37 164 208
2.032230000000000 -0.405127000000000 8.490000000000000 34 161 205
2.041520000000000 -0.405127000000000 8.490000000000000 31 160 204
2.050810000000000 -0.405127000000000 8.490000000000000 30 159 203
2.060100000000000 -0.405127000000000 8.490000000000000 18 147 191
2.069400000000000 -0.405127000000000 8.490000000000000 19 148 192
2.081140000000000 -0.405604000000000 8.500000000000000 29 151 196
2.090440000000000 -0.405604000000000 8.500000000000000 28 150 195
2.099750000000000 -0.405604000000000 8.500000000000000 37 146 190
2.109050000000000 -0.405604000000000 8.500000000000000 36 145 189
2.120850000000000 -0.406081000000000 8.510000000000000 52 142 186
2.130160000000000 -0.406081000000000 8.510000000000000 50 140 184
2.139480000000000 -0.406081000000000 8.510000000000000 83 139 172
2.151320000000000 -0.406558000000000 8.520000000000000 80 136 169
2.160640000000000 -0.406558000000000 8.520000000000000 149 166 175
0.000000000000000 -0.000000000000000 0.000000000000000 78 153 188
0.000000000000000 -0.000000000000000 0.000000000000000 61 161 203
1.807650000000000 -0.421470000000000 9.039999999999999 70 170 212
0.000000000000000 -0.000000000000000 0.000000000000000 60 165 208
1.799140000000000 -0.414942000000000 8.900000000000000 61 166 209
1.794650000000000 -0.411679000000000 8.830000000000000 63 165 207
1.796150000000000 -0.409814000000000 8.789999999999999 63 165 207
1.799600000000000 -0.408415000000000 8.760000000000000 77 167 201
1.807130000000000 -0.407949000000000 8.750000000000000 84 174 208
1.808400000000000 -0.406084000000000 8.710000000000001 140 194 213
1.817930000000000 -0.406084000000000 8.710000000000001 147 201 220
1.823270000000000 -0.405152000000000 8.690000000000000 165 206 216
1.828570000000000 -0.404219000000000 8.670000000000000 168 209 219
1.833820000000000 -0.403287000000000 8.650000000000000 159 203 219
1.841150000000000 -0.402820000000000 8.640000000000001 138 182 198
1.848470000000000 -0.402354000000000 8.630000000000001 104 172 203
1.853610000000000 -0.401422000000000 8.609999999999999 83 151 182
1.858710000000000 -0.400489000000000 8.590000000000000 44 151 187
1.865930000000000 -0.400023000000000 8.580000000000000 52 159 195
1.875330000000000 -0.400023000000000 8.580000000000000 17 166 202
1.882520000000000 -0.399557000000000 8.570000000000000 17 166 202
1.889690000000000 -0.399091000000000 8.560000000000000 10 164 204
1.896850000000000 -0.398624000000000 8.550000000000001 13 167 207
1.903980000000000 -0.398158000000000 8.539999999999999 16 167 209
1.913320000000000 -0.398158000000000 8.539999999999999 16 167 209
1.920420000000000 -0.397692000000000 8.529999999999999 28 167 211
1.929760000000000 -0.397692000000000 8.529999999999999 28 167 211
1.939090000000000 -0.397692000000000 8.529999999999999 38 166 212
1.946150000000000 -0.397226000000000 8.520000000000000 39 167 213
1.955470000000000 -0.397226000000000 8.520000000000000 41 170 214
1.964800000000000 -0.397226000000000 8.520000000000000 35 164 208
1.971810000000000 -0.396760000000000 8.510000000000000 33 162 206
1.981120000000000 -0.396760000000000 8.510000000000000 34 163 207
1.988100000000000 -0.396293000000000 8.500000000000000 36 163 207
1.997400000000000 -0.396293000000000 8.500000000000000 35 162 206
2.006710000000000 -0.396293000000000 8.500000000000000 35 162 206
2.016010000000000 -0.396293000000000 8.500000000000000 35 162 206
2.022930000000000 -0.395827000000000 8.490000000000000 29 156 200
2.032230000000000 -0.395827000000000 8.490000000000000 32 159 203
2.041520000000000 -0.395827000000000 8.490000000000000 28 158 204
2.050810000000000 -0.395827000000000 8.490000000000000 22 152 198
2.060100000000000 -0.395827000000000 8.490000000000000 18 148 194
2.069400000000000 -0.395827000000000 8.490000000000000 21 151 197
2.078690000000000 -0.395827000000000 8.490000000000000 26 152 198
2.087980000000000 -0.395827000000000 8.490000000000000 25 151 197
2.099750000000000 -0.396293000000000 8.500000000000000 27 140 184
2.109050000000000 -0.396293000000000 8.500000000000000 32 145 189
2.118360000000000 -0.396293000000000 8.500000000000000 49 144 189
2.127660000000000 -0.396293000000000 8.500000000000000 50 145 190
2.139480000000000 -0.396760000000000 8.510000000000000 79 142 181
2.151320000000000 -0.397226000000000 8.520000000000000 66 129 168
2.160640000000000 -0.397226000000000 8.520000000000000 130 154 167
1.809430000000000 -0.418852000000000 9.199999999999999 64 150 187
1.807640000000000 -0.416120000000000 9.140000000000001 72 158 195
1.801730000000000 -0.412478000000000 9.060000000000000 56 161 204
1.799650000000000 -0.409746000000000 9.000000000000000 59 164 207
0.000000000000000 -0.000000000000000 0.000000000000000 46 153 196
1.795100000000000 -0.404283000000000 8.880000000000001 58 165 208
1.792620000000000 -0.401551000000000 8.820000000000000 65 167 209
1.794100000000000 -0.399730000000000 8.779999999999999 63 165 207
1.797550000000000 -0.398365000000000 8.750000000000000 104 184 204
1.805060000000000 -0.397909000000000 8.740000000000000 106 186 206
1.808400000000000 -0.396543000000000 8.710000000000001 128 172 173
1.813760000000000 -0.395633000000000 8.690000000000000 119 163 164
1.819080000000000 -0.394722000000000 8.670000000000000 151 180 172
1.826460000000000 -0.394267000000000 8.660000000000000 163 192 184
1.831700000000000 -0.393357000000000 8.640000000000001 174 200 206
1.839020000000000 -0.392901000000000 8.630000000000001 178 204 210
1.846330000000000 -0.392446000000000 8.619999999999999 147 192 211
1.851460000000000 -0.391535000000000 8.600000000000000 142 187 206
1.858710000000000 -0.391080000000000 8.590000000000000 75 153 187
1.865930000000000 -0.390625000000000 8.580000000000000 78 156 190
1.873140000000000 -0.390170000000000 8.570000000000000 42 164 202
1.880320000000000 -0.389714000000000 8.560000000000000 38 160 198
1.889690000000000 -0.389714000000000 8.560000000000000 9 159 197
1.896850000000000 -0.389259000000000 8.550000000000001 20 170 208
1.903980000000000 -0.388804000000000 8.539999999999999 16 168 208
1.913320000000000 -0.388804000000000 8.539999999999999 6 158 198
1.920420000000000 -0.388349000000000 8.529999999999999 24 166 208
1.929760000000000 -0.388349000000000 8.529999999999999 22 164 206
1.939090000000000 -0.388349000000000 8.529999999999999 34 163 207
1.946150000000000 -0.387893000000000 8.520000000000000 37 166 210
1.955470000000000 -0.387893000000000 8.520000000000000 32 161 205
1.964800000000000 -0.387893000000000 8.520000000000000 33 162 206
1.974120000000000 -0.387893000000000 8.520000000000000 37 166 210
1.981120000000000 -0.387438000000000 8.510000000000000 35 164 208
1.990440000000000 -0.387438000000000 8.510000000000000 32 161 205
1.997400000000000 -0.386983000000000 8.500000000000000 32 161 205
2.006710000000000 -0.386983000000000 8.500000000000000 30 157 201
2.016010000000000 -0.386983000000000 8.500000000000000 29 156 200
2.025310000000000 -0.386983000000000 8.500000000000000 27 156 200
2.034620000000000 -0.386983000000000 8.500000000000000 27 156 200
2.041520000000000 -0.386527000000000 8.490000000000000 25 155 201
2.050810000000000 -0.386527000000000 8.490000000000000 18 148 194
2.060100000000000 -0.386527000000000 8.490000000000000 18 152 197
2.069400000000000 -0.386527000000000 8.490000000000000 19 153 198
2.078690000000000 -0.386527000000000 8.490000000000000 24 152 198
2.087980000000000 -0.386527000000000 8.490000000000000 24 152 198
2.099750000000000 -0.386983000000000 8.500000000000000 27 147 192
2.109050000000000 -0.386983000000000 8.500000000000000 26 146 191
2.118360000000000 -0.386983000000000 8.500000000000000 42 143 189
2.127660000000000 -0.386983000000000 8.500000000000000 41 142 188
2.139480000000000 -0.387438000000000 8.510000000000000 62 135 177
2.151320000000000 -0.387893000000000 8.520000000000000 63 136 178
2.160640000000000 -0.387893000000000 8.520000000000000 111 143 159
1.797410000000000 -0.408330000000000 9.190000000000000 98 153 182
1.797630000000000 -0.406109000000000 9.140000000000001 68 159 195
1.793790000000000 -0.402998000000000 9.070000000000000 68 159 195
1.793780000000000 -0.400777000000000 9.020000000000000 55 162 205
1.791650000000000 -0.398111000000000 8.960000000000001 58 165 208
0.000000000000000 -0.000000000000000 0.000000000000000 50 157 200
1.791050000000000 -0.393668000000000 8.859999999999999 55 162 205
1.790590000000000 -0.391446000000000 8.810000000000000 74 166 205
1.792060000000000 -0.389669000000000 8.770000000000000 76 168 207
1.797550000000000 -0.388780000000000 8.750000000000000 124 185 203
1.803000000000000 -0.387891000000000 8.730000000000000 74 135 153
1.806320000000000 -0.386559000000000 8.699999999999999 81 114 108
1.811670000000000 -0.385670000000000 8.680000000000000 71 104 98
1.816980000000000 -0.384781000000000 8.660000000000000 115 136 111
1.824350000000000 -0.384337000000000 8.650000000000000 113 134 109
1.831700000000000 -0.383893000000000 8.640000000000001 126 143 137
1.839020000000000 -0.383448000000000 8.630000000000001 181 198 192
1.846330000000000 -0.383004000000000 8.619999999999999 179 202 213
1.851460000000000 -0.382115000000000 8.600000000000000 185 208 219
1.856540000000000 -0.381227000000000 8.580000000000000 114 167 196
1.865930000000000 -0.381227000000000 8.580000000000000 104 157 186
1.873140000000000 -0.380782000000000 8.570000000000000 64 166 203
1.880320000000000 -0.380338000000000 8.560000000000000 60 162 199
1.887490000000000 -0.379894000000000 8.550000000000001 22 163 202
1.894630000000000 -0.379449000000000 8.539999999999999 24 165 204
1.903980000000000 -0.379449000000000 8.539999999999999 4 151 192
1.911080000000000 -0.379005000000000 8.529999999999999 8 155 196
1.920420000000000 -0.379005000000000 8.529999999999999 26 168 210
1.929760000000000 -0.379005000000000 8.529999999999999 24 166 208
1.939090000000000 -0.379005000000000 8.529999999999999 25 160 203
1.946150000000000 -0.378561000000000 8.520000000000000 29 164 207
1.955470000000000 -0.378561000000000 8.520000000000000 17 152 195
1.964800000000000 -0.378561000000000 8.520000000000000 23 158 201
1.974120000000000 -0.378561000000000 8.520000000000000 28 163 206
1.983450000000000 -0.378561000000000 8.520000000000000 30 165 208
1.990440000000000 -0.378116000000000 8.510000000000000 30 161 205
1.999750000000000 -0.378116000000000 8.510000000000000 28 159 203
2.009070000000000 -0.378116000000000 8.510000000000000 28 159 203
2.018380000000000 -0.378116000000000 8.510000000000000 25 156 200
2.025310000000000 -0.377672000000000 8.500000000000000 24 154 200
2.034620000000000 -0.377672000000000 8.500000000000000 25 155 201
2.043920000000000 -0.377672000000000 8.500000000000000 20 156 201
2.053230000000000 -0.377672000000000 8.500000000000000 13 149 194
2.060100000000000 -0.377228000000000 8.490000000000000 16 152 197
2.069400000000000 -0.377228000000000 8.490000000000000 16 152 197
2.078690000000000 -0.377228000000000 8.490000000000000 17 151 196
2.090440000000000 -0.377672000000000 8.500000000000000 15 149 194
2.099750000000000 -0.377672000000000 8.500000000000000 26 145 192
2.109050000000000 -0.377672000000000 8.500000000000000 26 145 192
2.118360000000000 -0.377672000000000 8.500000000000000 35 142 191
2.130160000000000 -0.378116000000000 8.510000000000000 31 138 187
2.139480000000000 -0.378116000000000 8.510000000000000 58 139 184
2.151320000000000 -0.378561000000000 8.520000000000000 60 141 186
2.160640000000000 -0.378561000000000 8.520000000000000 99 139 159
1.793180000000000 -0.399564000000000 9.220000000000001 94 159 191
1.787630000000000 -0.396097000000000 9.140000000000001 88 153 185
1.787800000000000 -0.393930000000000 9.090000000000000 62 159 197
1.787860000000000 -0.391763000000000 9.039999999999999 65 162 200
1.787810000000000 -0.389596000000000 8.990000000000000 56 166 206
1.787650000000000 -0.387430000000000 8.940000000000000 56 166 206
1.789400000000000 -0.385696000000000 8.900000000000000 57 167 207
1.789030000000000 -0.383529000000000 8.850000000000000 56 166 206
1.790590000000000 -0.381796000000000 8.810000000000000 89 174 209
1.794100000000000 -0.380496000000000 8.779999999999999 96 181 216
1.795500000000000 -0.378762000000000 8.740000000000000 105 155 173
1.800930000000000 -0.377896000000000 8.720000000000001 42 92 110
1.806320000000000 -0.377029000000000 8.699999999999999 54 79 75
1.811670000000000 -0.376162000000000 8.680000000000000 46 71 67
1.816980000000000 -0.375295000000000 8.660000000000000 75 91 60
1.822240000000000 -0.374429000000000 8.640000000000001 93 109 78
1.829580000000000 -0.373995000000000 8.630000000000001 95 104 90
1.839020000000000 -0.373995000000000 8.630000000000001 161 170 156
1.844190000000000 -0.373129000000000 8.609999999999999 193 207 210
1.851460000000000 -0.372695000000000 8.600000000000000 193 207 210
1.856540000000000 -0.371828000000000 8.580000000000000 142 180 205
1.865930000000000 -0.371828000000000 8.580000000000000 133 171 196
1.873140000000000 -0.371395000000000 8.570000000000000 82 164 201
1.880320000000000 -0.370962000000000 8.560000000000000 64 146 183
1.887490000000000 -0.370528000000000 8.550000000000001 37 161 199
1.894630000000000 -0.370095000000000 8.539999999999999 36 160 198
1.903980000000000 -0.370095000000000 8.539999999999999 18 159 198
1.911080000000000 -0.369662000000000 8.529999999999999 18 159 198
1.920420000000000 -0.369662000000000 8.529999999999999 33 169 209
1.929760000000000 -0.369662000000000 8.529999999999999 32 168 208
1.939090000000000 -0.369662000000000 8.529999999999999 30 166 206
1.948430000000000 -0.369662000000000 8.529999999999999 26 162 202
1.957770000000000 -0.369662000000000 8.529999999999999 11 151 193
1.967100000000000 -0.369662000000000 8.529999999999999 18 158 200
1.976440000000000 -0.369662000000000 8.529999999999999 22 162 204
1.983450000000000 -0.369228000000000 8.520000000000000 23 163 205
1.992780000000000 -0.369228000000000 8.520000000000000 27 164 207
2.002100000000000 -0.369228000000000 8.520000000000000 26 163 206
2.009070000000000 -0.368795000000000 8.510000000000000 19 156 199
2.018380000000000 -0.368795000000000 8.510000000000000 19 156 199
2.027700000000000 -0.368795000000000 8.510000000000000 18 154 199
2.037010000000000 -0.368795000000000 8.510000000000000 18 154 199
2.043920000000000 -0.368362000000000 8.500000000000000 16 152 197
2.053230000000000 -0.368362000000000 8.500000000000000 16 152 197
2.062530000000000 -0.368362000000000 8.500000000000000 15 151 196
2.071840000000000 -0.368362000000000 8.500000000000000 13 149 194
2.081140000000000 -0.368362000000000 8.500000000000000 17 151 196
2.090440000000000 -0.368362000000000 8.500000000000000 15 149 194
2.099750000000000 -0.368362000000000 8.500000000000000 23 146 193
2.109050000000000 -0.368362000000000 8.500000000000000 23 146 193
2.120850000000000 -0.368795000000000 8.510000000000000 25 139 187
2.130160000000000 -0.368795000000000 8.510000000000000 27 141 189
2.141990000000000 -0.369228000000000 8.520000000000000 52 139 187
2.151320000000000 -0.369228000000000 8.520000000000000 47 134 182
2.163180000000000 -0.369662000000000 8.529999999999999 83 130 155
2.172520000000000 -0.369662000000000 8.529999999999999 129 176 201
0.000000000000000 -0.000000000000000 0.000000000000000 116 150 168
1.787350000000000 -0.388197000000000 9.190000000000000 84 159 189
1.783720000000000 -0.385241000000000 9.119999999999999 80 155 185
1.781900000000000 -0.382706000000000 9.060000000000000 59 161 198
1.783900000000000 -0.381016000000000 9.020000000000000 61 163 200
1.785820000000000 -0.379327000000000 8.980000000000000 50 163 200
1.787650000000000 -0.377637000000000 8.940000000000000 51 164 201
1.789400000000000 -0.375947000000000 8.900000000000000 56 167 204
1.791050000000000 -0.374258000000000 8.859999999999999 58 169 206
1.792620000000000 -0.372568000000000 8.820000000000000 103 176 211
1.796150000000000 -0.371301000000000 8.789999999999999 105 178 213
1.797550000000000 -0.369611000000000 8.750000000000000 88 125 142
1.800930000000000 -0.368344000000000 8.720000000000001 30 67 84
1.806320000000000 -0.367499000000000 8.699999999999999 52 73 70
1.811670000000000 -0.366654000000000 8.680000000000000 52 73 70
1.816980000000000 -0.365810000000000 8.660000000000000 59 77 50
1.822240000000000 -0.364965000000000 8.640000000000001 84 102 75
1.829580000000000 -0.364542000000000 8.630000000000001 94 101 81
1.836890000000000 -0.364120000000000 8.619999999999999 133 140 120
1.844190000000000 -0.363697000000000 8.609999999999999 188 199 198
1.851460000000000 -0.363275000000000 8.600000000000000 197 208 207
1.856540000000000 -0.362430000000000 8.580000000000000 161 194 215
1.865930000000000 -0.362430000000000 8.580000000000000 144 177 198
1.873140000000000 -0.362008000000000 8.570000000000000 93 164 201
1.880320000000000 -0.361585000000000 8.560000000000000 80 151 188
1.887490000000000 -0.361163000000000 8.550000000000001 50 156 194
1.894630000000000 -0.360741000000000 8.539999999999999 50 156 194
1.903980000000000 -0.360741000000000 8.539999999999999 30 159 198
1.911080000000000 -0.360318000000000 8.529999999999999 33 162 201
1.920420000000000 -0.360318000000000 8.529999999999999 33 164 203
1.929760000000000 -0.360318000000000 8.529999999999999 34 165 204
1.939090000000000 -0.360318000000000 8.529999999999999 32 165 204
1.948430000000000 -0.360318000000000 8.529999999999999 29 162 201
1.957770000000000 -0.360318000000000 8.529999999999999 17 159 201
1.967100000000000 -0.360318000000000 8.529999999999999 17 159 201
1.976440000000000 -0.360318000000000 8.529999999999999 18 162 204
1.985780000000000 -0.360318000000000 8.529999999999999 19 163 205
1.992780000000000 -0.359896000000000 8.520000000000000 20 164 206
2.002100000000000 -0.359896000000000 8.520000000000000 20 164 206
2.011430000000000 -0.359896000000000 8.520000000000000 15 156 200
2.020750000000000 -0.359896000000000 8.520000000000000 13 154 198
2.027700000000000 -0.359473000000000 8.510000000000000 13 154 198
2.037010000000000 -0.359473000000000 8.510000000000000 12 153 197
2.043920000000000 -0.359051000000000 8.500000000000000 12 153 197
2.053230000000000 -0.359051000000000 8.500000000000000 12 153 197
2.062530000000000 -0.359051000000000 8.500000000000000 16 157 201
2.071840000000000 -0.359051000000000 8.500000000000000 9 150 194
2.081140000000000 -0.359051000000000 8.500000000000000 13 149 194
2.090440000000000 -0.359051000000000 8.500000000000000 13 149 194
2.099750000000000 -0.359051000000000 8.500000000000000 17 147 193
2.109050000000000 -0.359051000000000 8.500000000000000 16 146 192
2.120850000000000 -0.359473000000000 8.510000000000000 16 137 184
2.130160000000000 -0.359473000000000 8.510000000000000 18 139 186
2.141990000000000 -0.359896000000000 8.520000000000000 40 134 181
2.153840000000000 -0.360318000000000 8.529999999999999 35 129 176
2.163180000000000 -0.360318000000000 8.529999999999999 71 118 150
2.172520000000000 -0.360318000000000 8.529999999999999 103 150 182
0.000000000000000 -0.000000000000000 0.000000000000000 115 155 181
1.785400000000000 -0.377720000000000 9.180000000000000 81 161 195
1.781760000000000 -0.374839000000000 9.109999999999999 81 161 195
1.781900000000000 -0.372782000000000 9.060000000000000 57 165 198
1.781930000000000 -0.370725000000000 9.010000000000000 57 165 198
1.783830000000000 -0.369079000000000 8.970000000000001 51 165 200
1.787650000000000 -0.367844000000000 8.940000000000000 51 165 200
1.789400000000000 -0.366199000000000 8.900000000000000 59 166 202
1.791050000000000 -0.364553000000000 8.859999999999999 63 170 206
1.792620000000000 -0.362907000000000 8.820000000000000 118 186 217
1.794100000000000 -0.361261000000000 8.779999999999999 95 163 194
1.795500000000000 -0.359615000000000 8.740000000000000 55 88 102
1.800930000000000 -0.358792000000000 8.720000000000001 32 65 79
1.806320000000000 -0.357969000000000 8.699999999999999 110 124 119
1.811670000000000 -0.357147000000000 8.680000000000000 86 100 95
1.816980000000000 -0.356324000000000 8.660000000000000 60 72 53
1.822240000000000 -0.355501000000000 8.640000000000001 54 66 47
1.829580000000000 -0.355089000000000 8.630000000000001 83 90 70
