ply
format ascii 1.0
comment Created by Open3D
element vertex 1413
property double x
property double y
property double z
property uchar red
property uchar green
property uchar blue
end_header
-2.10281 2.78829 9.59 104 114 109
-2.09667 2.7941 9.61 104 114 109
-2.08615 2.7941 9.61 104 116 106
-2.07779 2.79701 9.62 104 116 106
-2.06726 2.79701 9.62 104 116 106
-2.05673 2.79701 9.62 107 119 109
-2.0462 2.79701 9.62 107 119 109
-2.03567 2.79701 9.62 108 120 110
-2.02514 2.79701 9.62 109 121 111
-2.01461 2.79701 9.62 112 124 114
-2.00408 2.79701 9.62 112 124 114
-1.99148 2.7941 9.61 111 123 113
-1.9789 2.7912 9.6 113 122 113
-1.96634 2.78829 9.59 113 122 113
-1.9538 2.78538 9.58 114 121 112
-1.94129 2.78247 9.57 114 121 112
-1.92678 2.77666 9.55 115 122 113
-1.91231 2.77084 9.53 115 122 113
-1.89789 2.76503 9.51 115 122 113
-1.88351 2.75921 9.49 115 122 113
-1.87115 2.75631 9.48 115 122 113
-1.85488 2.74758 9.45 115 122 113
-1.84064 2.74177 9.43 114 121 112
-1.82643 2.73595 9.41 111 118 109
-1.81227 2.73014 9.39 121 129 122
-1.79816 2.72432 9.37 141 149 142
-1.78408 2.71851 9.35 143 153 148
-1.77005 2.71269 9.33 157 167 162
-1.75607 2.70688 9.31 153 163 158
-1.74213 2.70106 9.29 150 160 155
-1.73009 2.69816 9.28 153 164 156
-1.71808 2.69525 9.27 154 165 157
-1.70794 2.69525 9.27 155 166 158
-1.69596 2.69234 9.26 153 164 156
-1.68582 2.69234 9.26 152 163 155
-1.67388 2.68943 9.25 154 165 157
-1.66375 2.68943 9.25 152 165 157
-1.65363 2.68943 9.25 150 163 155
-1.64172 2.68653 9.24 150 163 155
-1.63161 2.68653 9.24 150 163 155
-1.61974 2.68362 9.23 152 165 157
-1.60789 2.68071 9.22 152 165 157
-1.59607 2.6778 9.21 151 163 158
-1.58427 2.6749 9.2 155 167 162
-1.57077 2.66908 9.18 155 166 164
-1.55902 2.66617 9.17 157 168 166
-1.5473 2.66327 9.16 153 162 161
-1.53727 2.66327 9.16 146 155 154
-1.52558 2.66036 9.15 150 159 158
-1.51391 2.65745 9.14 143 152 151
-1.50226 2.65454 9.13 138 147 146
-1.49226 2.65454 9.13 126 135 134
-1.48389 2.65745 9.14 133 139 139
-1.47389 2.65745 9.14 130 136 136
-1.46548 2.66036 9.15 125 131 130
-1.45547 2.66036 9.15 119 125 124
-1.44545 2.66036 9.15 115 119 118
-1.43544 2.66036 9.15 112 116 115
-1.42386 2.65745 9.14 114 115 112
-0.735148 2.66327 9.16 124 121 125
-0.725913 2.66617 9.17 118 122 122
-0.716657 2.66908 9.18 119 123 123
-0.707378 2.67199 9.19 123 129 129
-0.697318 2.67199 9.19 125 131 131
-0.688007 2.6749 9.2 124 133 132
-0.678674 2.6778 9.21 123 132 131
-0.668592 2.6778 9.21 122 131 130
-0.659941 2.68362 9.23 123 132 131
-0.650542 2.68653 9.24 123 132 131
-0.640428 2.68653 9.24 123 132 131
-0.630996 2.68943 9.25 126 135 134
-0.621542 2.69234 9.26 126 135 134
-0.611406 2.69234 9.26 125 134 132
-0.601919 2.69525 9.27 125 134 132
-0.591772 2.69525 9.27 128 134 133
-0.581625 2.69525 9.27 126 132 131
-0.571478 2.69525 9.27 126 132 131
-0.561937 2.69816 9.28 128 134 133
-0.551779 2.69816 9.28 126 133 129
-0.541621 2.69816 9.28 126 133 129
-0.532036 2.70106 9.29 130 135 131
-0.521867 2.70106 9.29 133 138 134
-0.512249 2.70397 9.3 134 139 135
-0.502609 2.70688 9.31 132 137 133
-0.492419 2.70688 9.31 135 142 138
-0.482746 2.70979 9.32 132 139 135
-0.472544 2.70979 9.32 130 136 135
-0.462839 2.71269 9.33 130 136 135
-0.452626 2.71269 9.33 130 136 135
-0.442887 2.7156 9.34 130 136 135
-0.432664 2.7156 9.34 128 137 135
-0.42244 2.7156 9.34 129 138 136
-0.412217 2.7156 9.34 129 138 136
-0.402424 2.71851 9.35 131 140 138
-0.392189 2.71851 9.35 132 141 139
-0.381955 2.71851 9.35 132 141 139
-0.372118 2.72142 9.36 132 141 139
-0.362259 2.72432 9.37 131 140 138
-0.352002 2.72432 9.37 135 141 140
-0.341746 2.72432 9.37 137 143 142
-0.331843 2.72723 9.38 135 141 140
-0.321576 2.72723 9.38 135 141 140
-0.311309 2.72723 9.38 135 141 140
-0.301041 2.72723 9.38 135 141 140
-0.290774 2.72723 9.38 135 141 140
-0.280507 2.72723 9.38 137 143 142
-0.270239 2.72723 9.38 138 144 143
-0.259972 2.72723 9.38 138 144 143
-0.249705 2.72723 9.38 137 143 142
-0.239437 2.72723 9.38 138 144 143
-0.229414 2.73014 9.39 138 144 143
-0.219136 2.73014 9.39 135 141 140
-0.20908 2.73305 9.4 135 141 140
-0.199214 2.73886 9.42 138 144 143
-0.189103 2.74177 9.43 137 143 142
-0.178781 2.74177 9.43 135 141 140
-0.168638 2.74468 9.44 137 143 143
-0.158305 2.74468 9.44 139 145 145
-0 0 0 139 145 145
-0.137784 2.74758 9.45 138 144 144
-0.12744 2.74758 9.45 138 144 144
-0.116972 2.74468 9.44 138 144 144
-0.106526 2.74177 9.43 139 145 145
-0.0962044 2.74177 9.43 140 146 146
-0.0857912 2.73886 9.42 140 146 146
-0.0755602 2.74177 9.43 140 146 146
-0.0650998 2.73595 9.41 139 145 144
-0.0547996 2.73595 9.41 139 145 144
-0.0444994 2.73595 9.41 139 145 144
-0.0341992 2.73595 9.41 141 147 146
-0.023899 2.73595 9.41 142 148 147
-0.0135844 2.73305 9.4 140 146 145
-0.00329514 2.73305 9.4 141 147 146
0.0069941 2.73305 9.4 142 148 147
0.0172833 2.73305 9.4 144 150 149
0.0275726 2.73305 9.4 145 151 150
0.0378618 2.73305 9.4 144 150 149
0.0480998 2.73014 9.39 141 147 146
0.0583781 2.73014 9.39 142 148 147
0.0686564 2.73014 9.39 144 150 149
0.0788507 2.72723 9.38 144 150 149
0.089118 2.72723 9.38 142 148 147
0.0993854 2.72723 9.38 140 146 145
0.109653 2.72723 9.38 139 145 144
0.11992 2.72723 9.38 140 146 145
0.130187 2.72723 9.38 142 148 147
0.140605 2.73014 9.39 144 150 149
0.150883 2.73014 9.39 145 151 150
0.161161 2.73014 9.39 146 152 151
0.171622 2.73305 9.4 145 151 150
0.181911 2.73305 9.4 144 150 149
0.1922 2.73305 9.4 144 150 149
0.20249 2.73305 9.4 144 150 149
0.212779 2.73305 9.4 144 150 149
0.223068 2.73305 9.4 144 150 149
0.233606 2.73595 9.41 142 148 147
0.243906 2.73595 9.41 141 147 146
0.254206 2.73595 9.41 140 146 145
0.264506 2.73595 9.41 141 147 146
0.274806 2.73595 9.41 141 147 146
0.285107 2.73595 9.41 142 148 147
0.295407 2.73595 9.41 145 151 150
0.305707 2.73595 9.41 146 152 151
0.316007 2.73595 9.41 145 151 150
0.326307 2.73595 9.41 142 148 147
0.336608 2.73595 9.41 144 150 149
0.346908 2.73595 9.41 146 152 151
0.357588 2.73886 9.42 145 151 150
0.368289 2.74177 9.43 145 151 150
0.378611 2.74177 9.43 144 150 149
0.388933 2.74177 9.43 144 150 149
0.399679 2.74468 9.44 144 150 149
0.410012 2.74468 9.44 142 151 149
0.42079 2.74758 9.45 142 151 149
0.43159 2.75049 9.46 142 151 150
0.441945 2.75049 9.46 144 153 152
0.453256 2.75631 9.48 144 153 152
0.464122 2.75921 9.49 142 151 150
0.47501 2.76212 9.5 140 149 148
0.485409 2.76212 9.5 140 149 148
0.496329 2.76503 9.51 143 152 151
0.506739 2.76503 9.51 144 153 152
0.517149 2.76503 9.51 144 153 152
0.527558 2.76503 9.51 140 149 148
0.537968 2.76503 9.51 140 149 148
0.547801 2.76212 9.5 142 151 150
0.5582 2.76212 9.5 145 151 151
0.568 2.75921 9.49 145 151 151
0.578388 2.75921 9.49 145 151 151
0.588775 2.75921 9.49 144 150 150
0.599163 2.75921 9.49 142 151 150
0.609551 2.75921 9.49 143 152 151
0.620592 2.76212 9.5 142 151 150
0.631655 2.76503 9.51 140 149 148
0.64274 2.76794 9.52 139 148 147
0.653846 2.77084 9.53 139 148 147
0.664975 2.77375 9.54 140 149 148
0.675417 2.77375 9.54 142 151 150
0.686579 2.77666 9.55 140 149 148
0.698492 2.78247 9.57 139 148 147
0.708967 2.78247 9.57 139 148 147
0.720194 2.78538 9.58 140 149 148
0.730681 2.78538 9.58 139 148 147
0.741167 2.78538 9.58 139 148 147
0.751653 2.78538 9.58 139 148 147
0.762139 2.78538 9.58 139 148 147
0.772626 2.78538 9.58 137 146 145
0.783112 2.78538 9.58 139 148 147
0.79277 2.78247 9.57 140 149 148
0.802406 2.77957 9.56 137 146 145
0.81202 2.77666 9.55 136 147 146
0.822473 2.77666 9.55 133 144 143
0.832055 2.77375 9.54 134 145 144
0.842497 2.77375 9.54 138 149 148
0.85294 2.77375 9.54 125 137 139
0.863382 2.77375 9.54 128 140 142
0.873825 2.77375 9.54 112 127 128
0.884267 2.77375 9.54 115 130 131
0.895648 2.77666 9.55 101 113 115
0.906101 2.77666 9.55 99 111 113
0.918474 2.78247 9.57 97 109 111
0.928949 2.78247 9.57 97 109 111
0.940406 2.78538 9.58 101 110 114
0.951885 2.78829 9.59 101 110 114
0.963386 2.7912 9.6 103 111 113
0.974908 2.7941 9.61 103 111 113
0.986453 2.79701 9.62 103 111 113
0.998019 2.79992 9.63 102 110 112
1.01065 2.80573 9.65 102 110 112
1.02228 2.80864 9.66 102 110 112
1.03499 2.81446 9.68 102 111 110
1.04774 2.82027 9.7 98 107 106
1.06054 2.82609 9.72 97 106 105
1.07118 2.82609 9.72 97 106 105
1.08294 2.82899 9.73 98 107 106
1.09583 2.83481 9.75 97 106 105
1.10764 2.83772 9.76 97 106 105
1.12062 2.84353 9.78 96 105 104
1.13132 2.84353 9.78 97 106 105
1.14319 2.84644 9.79 96 105 104
1.15627 2.85225 9.81 97 106 105
1.1682 2.85516 9.82 97 106 105
1.18135 2.86098 9.84 97 106 105
1.19454 2.86679 9.86 98 107 106
1.20656 2.8697 9.87 97 106 105
1.21983 2.87551 9.89 95 104 103
1.23314 2.88133 9.91 96 105 103
1.2465 2.88714 9.93 95 104 102
1.25863 2.89005 9.94 93 102 100
1.27207 2.89587 9.96 96 105 103
1.28426 2.89877 9.97 98 108 103
1.29647 2.90168 9.98 98 108 103
1.31001 2.9075 10 97 106 104
1.32228 2.9104 10.01 96 105 103
1.33324 2.9104 10.01 97 106 104
1.34554 2.91331 10.02 95 104 102
1.35786 2.91622 10.03 94 103 101
1.36884 2.91622 10.03 93 102 100
1.38119 2.91913 10.04 96 105 103
1.39218 2.91913 10.04 100 109 107
1.40317 2.91913 10.04 101 110 108
1.41416 2.91913 10.04 94 103 101
1.42515 2.91913 10.04 91 97 97
1.43757 2.92203 10.05 78 84 84
1.45002 2.92494 10.06 64 72 74
-2.11273 2.7842 9.54 104 113 111
-2.10449 2.78712 9.55 111 120 118
-2.09623 2.79004 9.56 108 118 113
-2.09013 2.79588 9.58 103 113 108
-2.08181 2.79879 9.59 103 115 105
-2.07131 2.79879 9.59 104 116 106
-2.06297 2.80171 9.6 105 117 107
-2.05246 2.80171 9.6 108 120 110
-2.04408 2.80463 9.61 108 120 110
-2.03356 2.80463 9.61 109 121 111
-2.02304 2.80463 9.61 110 122 112
-2.01252 2.80463 9.61 111 123 113
-2.002 2.80463 9.61 112 124 114
-1.99148 2.80463 9.61 111 123 113
-1.9789 2.80171 9.6 111 123 113
-1.96634 2.79879 9.59 110 122 112
-1.9538 2.79588 9.58 114 121 112
-1.94129 2.79296 9.57 114 121 112
-1.92678 2.78712 9.55 114 121 112
-1.91231 2.78128 9.53 114 121 112
-1.89789 2.77545 9.51 114 121 112
-1.8855 2.77253 9.5 115 122 113
-1.87115 2.76669 9.48 115 122 113
-1.85685 2.76085 9.46 115 122 113
-1.84064 2.7521 9.43 115 122 113
-1.82643 2.74626 9.41 114 121 112
-1.81227 2.74043 9.39 116 122 115
-1.79816 2.73459 9.37 123 129 122
-1.78217 2.72583 9.34 131 138 134
-1.76816 2.72 9.32 147 154 150
-1.75418 2.71416 9.3 164 172 165
-1.74025 2.70832 9.28 153 161 154
-1.72823 2.7054 9.27 153 161 154
-1.71623 2.70249 9.26 154 162 155
-1.70609 2.70249 9.26 154 162 155
-1.69413 2.69957 9.25 154 162 155
-1.684 2.69957 9.25 152 163 155
-1.67388 2.69957 9.25 153 164 156
-1.66195 2.69665 9.24 151 163 158
-1.65184 2.69665 9.24 152 164 159
-1.64172 2.69665 9.24 152 164 159
-1.62984 2.69373 9.23 151 163 158
-1.61799 2.69081 9.22 152 164 159
-1.60615 2.68789 9.21 152 164 159
-1.59434 2.68497 9.2 152 164 159
-1.58254 2.68206 9.19 152 164 159
-1.57077 2.67914 9.18 151 162 160
-1.55902 2.67622 9.17 153 164 162
-1.54561 2.67038 9.15 148 159 157
-1.53559 2.67038 9.15 150 161 159
-1.52391 2.66746 9.14 151 162 161
-1.51225 2.66455 9.13 148 159 158
-1.50061 2.66163 9.12 149 160 159
-1.49063 2.66163 9.12 151 162 161
-1.48064 2.66163 9.12 146 155 153
-1.47066 2.66163 9.12 140 149 147
-1.46068 2.66163 9.12 138 147 145
-1.45229 2.66455 9.13 136 145 143
-1.44229 2.66455 9.13 139 146 142
-1.43073 2.66163 9.12 131 138 134
-1.42231 2.66455 9.13 132 137 133
-1.41231 2.66455 9.13 135 140 136
-1.40232 2.66455 9.13 131 132 129
-1.39232 2.66455 9.13 133 134 131
-1.38233 2.66455 9.13 135 136 133
-1.37083 2.66163 9.12 131 132 129
-0.754377 2.67038 9.15 123 121 122
-0.744361 2.67038 9.15 124 123 127
-0.735148 2.6733 9.16 123 122 126
-0.725913 2.67622 9.17 124 130 130
-0.716657 2.67914 9.18 125 131 131
-0.706608 2.67914 9.18 125 131 130
-0.697318 2.68206 9.19 126 132 131
-0.687259 2.68206 9.19 128 134 133
-0.677937 2.68497 9.2 127 133 132
-0.667866 2.68497 9.2 125 131 130
-0.658511 2.68789 9.21 125 131 130
-0.64843 2.68789 9.21 125 131 130
-0.639735 2.69373 9.23 126 132 131
-0.629632 2.69373 9.23 128 134 133
-0.6202 2.69665 9.24 128 134 133
-0.610085 2.69665 9.24 127 133 132
-0.600621 2.69957 9.25 126 132 131
-0.590496 2.69957 9.25 127 133 132
-0.580998 2.70249 9.26 126 132 131
-0.570862 2.70249 9.26 127 133 132
-0.560726 2.70249 9.26 127 133 132
-0.55059 2.70249 9.26 128 133 129
-0.540454 2.70249 9.26 130 135 131
-0.530891 2.7054 9.27 132 137 133
-0.520744 2.7054 9.27 134 139 135
-0.511148 2.70832 9.28 134 139 135
-0.50099 2.70832 9.28 134 139 135
-0.491361 2.71124 9.29 135 142 138
-0.481192 2.71124 9.29 132 139 135
-0.472037 2.71708 9.31 130 136 135
-0.461846 2.71708 9.31 130 136 135
-0.452141 2.72 9.32 131 137 136
-0.441939 2.72 9.32 131 137 136
-0.431737 2.72 9.32 130 139 137
-0.421536 2.72 9.32 130 139 137
-0.411334 2.72 9.32 131 140 138
-0.401563 2.72291 9.33 131 140 138
-0.39135 2.72291 9.33 132 141 139
-0.381546 2.72583 9.34 132 141 139
-0.371323 2.72583 9.34 133 142 140
-0.361486 2.72875 9.35 132 141 139
-0.351627 2.73167 9.36 135 141 140
-0.341746 2.73459 9.37 137 143 142
-0.33149 2.73459 9.37 135 141 140
-0.321576 2.73751 9.38 135 141 140
-0.311309 2.73751 9.38 135 141 140
-0.301041 2.73751 9.38 135 141 140
-0.290774 2.73751 9.38 137 143 142
-0.280507 2.73751 9.38 138 144 143
-0.270239 2.73751 9.38 137 143 142
-0.259972 2.73751 9.38 137 143 142
-0.249705 2.73751 9.38 138 144 143
-0.239692 2.74043 9.39 139 145 144
-0.229414 2.74043 9.39 139 145 144
-0.219136 2.74043 9.39 138 144 143
-0.208858 2.74043 9.39 138 144 143
-0.199002 2.74626 9.41 138 144 143
-0.188702 2.74626 9.41 138 144 143
-0.178402 2.74626 9.41 139 145 144
-0.168102 2.74626 9.41 139 145 144
-0.157801 2.74626 9.41 140 146 145
-0.147501 2.74626 9.41 140 146 145
-0.137201 2.74626 9.41 139 145 144
-0.126901 2.74626 9.41 139 145 144
-0.116601 2.74626 9.41 139 145 144
-0.106188 2.74334 9.4 140 146 145
-0.0957963 2.74043 9.39 141 147 146
-0.085518 2.74043 9.39 142 148 147
-0.0752397 2.74043 9.39 142 148 147
-0.0649614 2.74043 9.39 139 145 144
-0.0546831 2.74043 9.39 139 145 144
-0.0444048 2.74043 9.39 139 145 144
-0.0341265 2.74043 9.39 140 146 145
-0.0238482 2.74043 9.39 141 148 144
-0.0135699 2.74043 9.39 141 148 144
-0.00328813 2.73751 9.38 144 151 147
0.00697922 2.73751 9.38 145 152 148
0.0172466 2.73751 9.38 146 153 149
0.0275139 2.73751 9.38 146 153 149
0.037741 2.73459 9.37 146 152 151
0.0479974 2.73459 9.37 145 151 150
0.0582538 2.73459 9.37 144 150 149
0.0684371 2.73167 9.36 144 150 149
0.0785985 2.72875 9.35 144 150 149
0.088833 2.72875 9.35 144 150 149
0.0991735 2.73167 9.36 141 147 146
0.109302 2.72875 9.35 142 148 147
0.119664 2.73167 9.36 144 150 149
0.12991 2.73167 9.36 144 150 149
0.140305 2.73459 9.37 142 148 147
0.150561 2.73459 9.37 144 150 149
0.160818 2.73459 9.37 146 152 151
0.171257 2.73751 9.38 146 152 151
0.181524 2.73751 9.38 145 151 150
0.191792 2.73751 9.38 145 151 150
0.202059 2.73751 9.38 145 151 150
0.212326 2.73751 9.38 144 150 149
0.222594 2.73751 9.38 144 150 149
0.232861 2.73751 9.38 144 150 149
0.243128 2.73751 9.38 141 147 146
0.253396 2.73751 9.38 140 146 145
0.263944 2.74043 9.39 148 157 155
0.27393 2.73751 9.38 146 155 153
0.284501 2.74043 9.39 142 151 149
0.294465 2.73751 9.38 142 151 149
0.304732 2.73751 9.38 143 152 150
0.315 2.73751 9.38 142 151 149
0.325614 2.74043 9.39 140 149 147
0.335892 2.74043 9.39 142 151 149
0.34617 2.74043 9.39 144 153 151
0.356449 2.74043 9.39 144 153 151
0.367118 2.74334 9.4 144 153 151
0.377407 2.74334 9.4 143 152 150
0.388109 2.74626 9.41 142 151 149
0.398409 2.74626 9.41 142 151 149
0.409143 2.74918 9.42 142 151 149
0.4199 2.7521 9.43 142 151 149
0.430678 2.75502 9.44 143 152 150
0.441478 2.75794 9.45 142 151 149
0.451822 2.75794 9.45 144 153 151
0.462655 2.76085 9.46 143 152 150
0.47401 2.76669 9.48 142 151 150
0.484898 2.76961 9.49 142 151 150
0.495808 2.77253 9.5 144 153 152
0.506206 2.77253 9.5 144 153 152
0.516605 2.77253 9.5 144 153 152
0.527004 2.77253 9.5 140 149 148
0.536837 2.76961 9.49 141 147 147
0.547224 2.76961 9.49 144 150 150
0.557025 2.76669 9.48 147 153 152
0.567401 2.76669 9.48 146 152 151
0.577169 2.76377 9.47 145 151 150
0.588155 2.76669 9.48 146 152 151
0.598532 2.76669 9.48 145 151 150
0.608909 2.76669 9.48 144 150 149
0.619939 2.76961 9.49 144 153 151
0.630991 2.77253 9.5 143 152 150
0.642065 2.77545 9.51 139 148 146
0.653846 2.78128 9.53 140 149 147
0.664278 2.78128 9.53 139 148 146
0.675417 2.7842 9.54 139 148 146
0.68586 2.7842 9.54 138 147 146
0.697032 2.78712 9.55 138 147 146
0.707486 2.78712 9.55 138 147 146
0.718691 2.79004 9.56 139 148 147
0.729155 2.79004 9.56 139 148 147
0.73962 2.79004 9.56 138 147 146
0.750084 2.79004 9.56 138 147 146
0.760548 2.79004 9.56 138 147 146
0.771013 2.79004 9.56 137 146 145
0.78066 2.78712 9.55 138 147 146
0.791113 2.78712 9.55 145 154 153
0.800727 2.7842 9.54 138 147 146
0.81117 2.7842 9.54 124 133 132
0.821612 2.7842 9.54 132 141 140
0.832055 2.7842 9.54 129 139 141
0.841614 2.78128 9.53 123 133 135
0.852046 2.78128 9.53 106 118 120
0.862477 2.78128 9.53 94 106 108
0.873825 2.7842 9.54 96 108 110
0.884267 2.7842 9.54 97 109 111
0.895648 2.78712 9.55 100 112 114
0.906101 2.78712 9.55 103 115 117
0.917514 2.79004 9.56 103 113 115
0.928949 2.79296 9.57 99 109 111
0.940406 2.79588 9.58 99 108 112
0.950892 2.79588 9.58 101 110 114
0.963386 2.80171 9.6 102 110 112
0.974908 2.80463 9.61 101 109 111
0.986453 2.80755 9.62 100 108 110
0.998019 2.81047 9.63 98 106 108
1.01065 2.8163 9.65 100 108 110
1.02228 2.81922 9.66 101 109 111
1.03606 2.82798 9.69 100 108 110
1.04774 2.8309 9.7 98 106 108
1.06054 2.83673 9.72 97 106 105
1.07229 2.83965 9.73 97 106 105
1.08516 2.84549 9.75 97 106 105
1.09696 2.84841 9.76 96 105 104
1.10878 2.85133 9.77 96 105 104
1.12062 2.85424 9.78 96 105 104
1.13248 2.85716 9.79 96 105 104
1.14553 2.863 9.81 96 105 104
1.15745 2.86592 9.82 96 105 104
1.17058 2.87176 9.84 97 106 105
1.18255 2.87467 9.85 97 106 105
1.19575 2.88051 9.87 98 107 106
1.20778 2.88343 9.88 98 107 105
1.22106 2.88927 9.9 95 104 102
1.23314 2.89218 9.91 95 104 102
1.2465 2.89802 9.93 93 102 100
1.25863 2.90094 9.94 91 100 98
1.27207 2.90678 9.96 95 104 102
1.28426 2.9097 9.97 99 106 102
1.29647 2.91261 9.98 99 106 102
1.3087 2.91553 9.99 98 105 101
1.32096 2.91845 10 98 105 101
1.33324 2.92137 10.01 98 105 101
1.3442 2.92137 10.01 100 107 103
1.35515 2.92137 10.01 98 105 101
1.36611 2.92137 10.01 98 105 101
1.37844 2.92429 10.02 98 104 103
1.38941 2.92429 10.02 100 106 105
1.39898 2.92137 10.01 98 104 103
1.40994 2.92137 10.01 90 96 95
-2.09184 2.79465 9.54 101 110 108
-2.08358 2.79758 9.55 103 112 110
-2.0753 2.80051 9.56 108 120 110
-2.06699 2.80344 9.57 104 116 106
-2.05867 2.80637 9.58 104 116 106
-2.04818 2.80637 9.58 105 117 107
-2.03982 2.8093 9.59 107 119 109
-2.03144 2.81223 9.6 108 120 110
-2.02304 2.81516 9.61 109 121 111
-2.01252 2.81516 9.61 109 121 111
-2.002 2.81516 9.61 109 122 109
-1.98941 2.81223 9.6 108 121 108
-1.97684 2.8093 9.59 111 121 109
-1.96634 2.8093 9.59 111 121 109
-1.9538 2.80637 9.58 113 120 111
-1.94129 2.80344 9.57 114 121 112
-1.92678 2.79758 9.55 114 121 112
-1.91231 2.79172 9.53 113 120 111
-1.89789 2.78586 9.51 115 118 110
-1.8855 2.78293 9.5 112 115 107
-1.87312 2.78 9.49 114 117 109
-1.85685 2.77122 9.46 117 120 112
-1.84259 2.76536 9.44 117 120 112
-1.82643 2.75657 9.41 117 120 112
-1.81227 2.75071 9.39 107 114 105
-1.79816 2.74485 9.37 115 122 113
-1.78217 2.73606 9.34 120 125 121
-1.76816 2.7302 9.32 120 125 121
-1.7523 2.72142 9.29 140 146 139
-1.73838 2.71556 9.27 155 161 154
-1.72637 2.71263 9.26 154 162 155
-1.71438 2.7097 9.25 153 161 154
-1.70425 2.7097 9.25 149 157 150
-1.69229 2.70677 9.24 152 160 153
-1.68218 2.70677 9.24 151 161 156
-1.67207 2.70677 9.24 152 162 157
-1.66195 2.70677 9.24 154 164 159
-1.65005 2.70384 9.23 157 167 162
-1.63995 2.70384 9.23 153 165 160
-1.62808 2.70091 9.22 151 163 158
-1.61623 2.69798 9.21 153 165 160
-1.60615 2.69798 9.21 151 163 158
-1.59434 2.69505 9.2 151 163 158
-1.58254 2.69212 9.19 153 165 160
-1.57077 2.68919 9.18 155 167 162
-1.55732 2.68333 9.16 156 168 163
-1.54561 2.6804 9.15 153 164 162
-1.53391 2.67748 9.14 152 163 161
-1.52224 2.67455 9.13 149 160 158
-1.51059 2.67162 9.12 148 159 157
-1.49896 2.66869 9.11 148 159 157
-1.48572 2.66283 9.09 146 157 155
-1.47577 2.66283 9.09 144 155 153
-1.46744 2.66576 9.1 144 155 153
-1.45748 2.66576 9.1 147 157 152
-1.44752 2.66576 9.1 148 158 153
-1.43913 2.66869 9.11 153 160 156
-1.42916 2.66869 9.11 138 145 141
-1.41919 2.66869 9.11 144 151 147
-1.40922 2.66869 9.11 146 153 149
-1.39925 2.66869 9.11 130 138 131
-1.38927 2.66869 9.11 127 135 128
-1.3793 2.66869 9.11 130 136 129
-1.36933 2.66869 9.11 129 135 128
-1.35936 2.66869 9.11 130 136 129
-1.34939 2.66869 9.11 135 141 134
-1.33942 2.66869 9.11 121 127 120
-1.32944 2.66869 9.11 113 119 112
-0.764393 2.6804 9.15 107 106 110
-0.754377 2.6804 9.15 123 122 126
-0.745175 2.68333 9.16 125 129 129
-0.735148 2.68333 9.16 125 129 129
-0.725913 2.68626 9.17 127 133 133
-0.715876 2.68626 9.17 127 133 133
-0.706608 2.68919 9.18 127 133 132
-0.69656 2.68919 9.18 127 133 132
-0.686511 2.68919 9.18 128 134 133
-0.6772 2.69212 9.19 130 136 135
-0.66714 2.69212 9.19 128 134 133
-0.657081 2.69212 9.19 126 132 131
-0.647726 2.69505 9.2 124 130 129
-0.638348 2.69798 9.21 126 132 131
-0.628267 2.69798 9.21 128 134 133
-0.618857 2.70091 9.22 130 136 135
-0.609425 2.70384 9.23 128 134 133
-0.599322 2.70384 9.23 127 133 132
-0.589857 2.70677 9.24 127 133 132
-0.579743 2.70677 9.24 127 133 132
-0.569629 2.70677 9.24 128 135 131
-0.559515 2.70677 9.24 128 135 131
-0.549401 2.70677 9.24 130 135 131
-0.53987 2.7097 9.25 134 139 135
-0.529745 2.7097 9.25 136 141 137
-0.51962 2.7097 9.25 135 140 136
-0.509495 2.7097 9.25 134 139 135
-0.49991 2.71263 9.26 135 140 136
-0.490303 2.71556 9.27 136 141 137
-0.480156 2.71556 9.27 135 140 136
-0.470516 2.71849 9.28 133 140 136
-0.460854 2.72142 9.29 131 138 134
-0.451171 2.72435 9.3 133 140 136
-0.440991 2.72435 9.3 133 140 136
-0.431274 2.72728 9.31 132 139 135
-0.421083 2.72728 9.31 134 141 137
-0.410893 2.72728 9.31 132 142 137
-0.400702 2.72728 9.31 132 142 137
-0.390511 2.72728 9.31 132 142 137
-0.380729 2.7302 9.32 132 142 137
-0.370527 2.7302 9.32 132 142 137
-0.360712 2.73313 9.33 132 142 137
-0.3505 2.73313 9.33 135 142 138
-0.341017 2.73899 9.35 138 145 141
-0.331136 2.74192 9.36 138 145 141
-0.321233 2.74485 9.37 137 144 140
-0.310977 2.74485 9.37 135 141 140
-0.30072 2.74485 9.37 135 141 140
-0.290774 2.74778 9.38 138 144 143
-0.280507 2.74778 9.38 139 145 144
-0.270239 2.74778 9.38 139 145 144
-0.259972 2.74778 9.38 139 145 144
-0.249705 2.74778 9.38 139 145 144
-0.239437 2.74778 9.38 139 145 144
-0.22917 2.74778 9.38 140 146 145
-0.218902 2.74778 9.38 140 146 145
-0.208635 2.74778 9.38 138 144 143
-0.198579 2.75071 9.39 138 144 143
-0.188301 2.75071 9.39 138 144 143
-0.177833 2.74778 9.38 139 145 144
-0.167566 2.74778 9.38 140 146 145
-0.157298 2.74778 9.38 140 146 145
-0.147031 2.74778 9.38 140 146 145
-0.136764 2.74778 9.38 140 146 145
-0.126361 2.74485 9.37 140 146 145
-0.116229 2.74778 9.38 139 145 144
-0.105849 2.74485 9.37 141 147 146
-0.0954903 2.74192 9.36 144 150 149
-0.0853359 2.74485 9.37 144 150 149
-0.0750795 2.74485 9.37 144 150 149
-0.0648231 2.74485 9.37 140 146 145
-0.0545667 2.74485 9.37 139 145 144
-0.0443102 2.74485 9.37 140 146 145
-0.0340538 2.74485 9.37 141 147 146
-0.0237974 2.74485 9.37 141 148 144
-0.013541 2.74485 9.37 142 149 145
-0.00328463 2.74485 9.37 145 152 148
0.00696434 2.74192 9.36 145 152 148
0.0172098 2.74192 9.36 142 149 145
0.0274259 2.73899 9.35 145 152 148
0.0376604 2.73899 9.35 146 153 149
0.0478437 2.73606 9.34 145 152 148
0.0580673 2.73606 9.34 145 151 150
0.0682909 2.73606 9.34 144 150 149
0.0784304 2.73313 9.33 142 148 147
0.088643 2.73313 9.33 142 148 147
0.0988556 2.73313 9.33 141 147 146
0.109068 2.73313 9.33 145 151 150
0.119281 2.73313 9.33 146 152 151
0.129632 2.73606 9.34 145 151 150
0.139856 2.73606 9.34 142 148 147
0.150079 2.73606 9.34 144 150 149
0.160303 2.73606 9.34 145 151 150
0.170709 2.73899 9.35 147 153 152
0.180944 2.73899 9.35 146 152 151
0.191178 2.73899 9.35 146 152 151
0.201628 2.74192 9.36 146 152 151
0.211874 2.74192 9.36 145 151 150
0.222119 2.74192 9.36 145 151 150
0.232364 2.74192 9.36 145 151 150
0.24261 2.74192 9.36 140 149 147
0.252585 2.73899 9.35 140 149 147
0.26282 2.73899 9.35 145 154 152
0.273054 2.73899 9.35 144 153 151
0.283592 2.74192 9.36 142 151 149
0.293523 2.73899 9.35 142 151 149
0.303758 2.73899 9.35 142 151 149
0.314328 2.74192 9.36 140 149 147
0.324574 2.74192 9.36 142 151 149
0.335177 2.74485 9.37 142 151 149
0.345433 2.74485 9.37 143 152 150
0.35569 2.74485 9.37 144 153 151
0.366336 2.74778 9.38 144 153 151
0.376604 2.74778 9.38 145 154 152
0.386871 2.74778 9.38 144 153 151
0.397562 2.75071 9.39 142 151 149
0.40784 2.75071 9.39 143 152 150
0.418564 2.75364 9.4 143 152 150
0.429309 2.75657 9.41 142 151 149
0.440077 2.7595 9.42 140 149 147
0.450866 2.76243 9.43 144 153 151
0.461677 2.76536 9.44 144 153 151
0.47251 2.76829 9.45 143 152 150
0.483365 2.77122 9.46 143 152 150
0.494764 2.77708 9.48 144 153 151
0.505141 2.77708 9.48 140 149 147
0.515517 2.77708 9.48 142 151 149
0.525894 2.77708 9.48 140 149 147
0.536271 2.77708 9.48 140 149 147
0.546071 2.77415 9.47 143 152 150
0.555849 2.77122 9.46 147 153 152
0.566204 2.77122 9.46 145 151 150
0.576559 2.77122 9.46 145 151 150
0.586914 2.77122 9.46 146 152 151
0.597269 2.77122 9.46 145 152 148
0.608909 2.77708 9.48 144 151 147
0.619285 2.77708 9.48 146 153 149
0.630326 2.78 9.49 144 151 147
0.641389 2.78293 9.5 142 149 145
0.652474 2.78586 9.51 144 151 147
0.664278 2.79172 9.53 142 148 147
0.674709 2.79172 9.53 140 146 145
0.685141 2.79172 9.53 139 145 144
0.696302 2.79465 9.54 138 144 143
0.706745 2.79465 9.54 139 145 144
0.717187 2.79465 9.54 139 145 144
0.72763 2.79465 9.54 137 146 144
0.738072 2.79465 9.54 139 148 146
0.748515 2.79465 9.54 138 147 145
0.758957 2.79465 9.54 136 145 143
0.7694 2.79465 9.54 136 145 143
0.779842 2.79465 9.54 139 148 146
0.790285 2.79465 9.54 136 145 144
0.800727 2.79465 9.54 132 141 140
0.810319 2.79172 9.53 124 132 134
0.820751 2.79172 9.53 118 126 128
0.831183 2.79172 9.53 111 119 121
0.841614 2.79172 9.53 102 110 112
0.852046 2.79172 9.53 101 111 113
0.862477 2.79172 9.53 101 111 113
0.873825 2.79465 9.54 101 111 113
0.884267 2.79465 9.54 101 111 113
0.895648 2.79758 9.55 99 109 111
0.90705 2.80051 9.56 100 110 112
0.918474 2.80344 9.57 101 111 113
0.928949 2.80344 9.57 98 108 110
0.940406 2.80637 9.58 98 108 110
0.950892 2.80637 9.58 100 110 112
0.963386 2.81223 9.6 101 111 113
0.974908 2.81516 9.61 98 108 110
0.986453 2.81809 9.62 95 105 107
0.999056 2.82395 9.64 94 104 106
1.01065 2.82687 9.65 96 104 106
1.02333 2.83273 9.67 100 108 110
1.03606 2.83859 9.69 100 108 110
1.04882 2.84445 9.71 98 106 108
1.06054 2.84738 9.72 97 106 105
1.07339 2.85324 9.74 97 106 105
1.08516 2.85617 9.75 96 105 104
1.09808 2.86203 9.77 95 104 103
1.10991 2.86496 9.78 96 105 104
1.12176 2.86789 9.79 97 106 105
1.13479 2.87375 9.81 97 106 105
1.14553 2.87375 9.81 96 105 104
1.15863 2.8796 9.83 96 105 104
1.17058 2.88253 9.84 96 105 104
1.18375 2.88839 9.86 97 106 105
1.19575 2.89132 9.87 98 107 106
1.20778 2.89425 9.88 95 104 102
1.22106 2.90011 9.9 95 104 102
1.23314 2.90304 9.91 95 104 102
1.2465 2.9089 9.93 94 103 101
1.25863 2.91183 9.94 94 103 101
1.27079 2.91476 9.95 95 104 102
1.28297 2.91769 9.96 99 106 102
1.29647 2.92355 9.98 99 106 102
1.30739 2.92355 9.98 98 105 101
1.31964 2.92647 9.99 93 100 96
1.33057 2.92647 9.99 95 102 98
1.34151 2.92647 9.99 98 105 101
1.35245 2.92647 9.99 99 106 102
1.36338 2.92647 9.99 103 110 106
1.37432 2.92647 9.99 76 77 74
-2.07485 2.79628 9.51 84 90 90
-2.06879 2.80216 9.53 116 122 115
-2.06051 2.8051 9.54 116 122 115
-2.05222 2.80804 9.55 104 113 104
-2.04604 2.81392 9.57 104 113 104
-2.03769 2.81686 9.58 102 114 104
-2.02721 2.81686 9.58 103 115 105
-2.01883 2.8198 9.59 104 116 106
-2.01042 2.82274 9.6 105 117 107
-1.99992 2.82274 9.6 105 118 105
-1.98734 2.8198 9.59 107 120 107
-1.97684 2.8198 9.59 109 119 107
-1.96634 2.8198 9.59 110 120 108
-1.9538 2.81686 9.58 110 119 110
-1.94129 2.81392 9.57 110 119 110
-1.92678 2.80804 9.55 112 119 110
-1.91432 2.8051 9.54 113 120 111
-1.89989 2.79922 9.52 114 117 109
-1.88748 2.79628 9.51 112 115 107
-1.87312 2.7904 9.49 114 117 109
-1.85881 2.78452 9.47 116 119 111
-1.84259 2.7757 9.44 117 120 112
-1.82837 2.76982 9.42 118 121 113
-1.81227 2.761 9.39 115 122 113
-1.79816 2.75512 9.37 118 125 116
-1.78217 2.74629 9.34 119 125 118
-1.76816 2.74041 9.32 111 117 110
-1.7523 2.73159 9.29 119 125 118
-1.73838 2.72571 9.27 129 135 128
-1.7245 2.71983 9.25 142 150 143
-1.71252 2.71689 9.24 154 162 155
-1.70241 2.71689 9.24 146 157 149
-1.69046 2.71395 9.23 146 157 149
-1.68036 2.71395 9.23 147 156 154
-1.67026 2.71395 9.23 148 157 155
-1.65836 2.71101 9.22 153 162 160
-1.64826 2.71101 9.22 155 164 162
-1.63639 2.70807 9.21 151 161 156
-1.62631 2.70807 9.21 151 161 156
-1.61623 2.70807 9.21 157 167 162
-1.60441 2.70513 9.2 153 163 158
-1.59434 2.70513 9.2 153 163 158
-1.58254 2.70219 9.19 154 164 159
-1.56906 2.69631 9.17 155 165 160
-1.55732 2.69337 9.16 157 167 162
-1.54392 2.68749 9.14 153 163 158
-1.53224 2.68455 9.13 152 162 157
-1.52058 2.68161 9.12 152 162 157
-1.50728 2.67573 9.1 151 161 156
-1.49567 2.67279 9.09 150 159 157
-1.48409 2.66984 9.08 148 157 155
-1.47415 2.66984 9.08 148 158 153
-1.46421 2.66984 9.08 148 158 153
-1.45427 2.66984 9.08 148 158 153
-1.44433 2.66984 9.08 148 158 153
-1.43439 2.66984 9.08 149 156 152
-1.42446 2.66984 9.08 141 148 144
-1.41607 2.67279 9.09 155 163 156
-1.40612 2.67279 9.09 159 167 160
-1.39617 2.67279 9.09 156 164 157
-1.38622 2.67279 9.09 153 161 154
-1.37628 2.67279 9.09 150 158 151
-1.36633 2.67279 9.09 146 154 147
-1.35638 2.67279 9.09 145 153 146
-1.34643 2.67279 9.09 146 154 147
-1.33648 2.67279 9.09 139 147 140
-1.32653 2.67279 9.09 131 139 132
-1.31658 2.67279 9.09 130 138 131
-1.30663 2.67279 9.09 126 134 127
-1.29668 2.67279 9.09 126 133 129
-1.28673 2.67279 9.09 126 133 129
-1.27678 2.67279 9.09 112 119 115
-1.26683 2.67279 9.09 110 117 113
-1.25688 2.67279 9.09 107 114 110
-0.782709 2.68455 9.13 119 119 120
-0.773562 2.68749 9.14 118 118 119
-0.764393 2.69043 9.15 118 122 122
-0.754377 2.69043 9.15 122 126 126
-0.745175 2.69337 9.16 125 131 131
-0.735148 2.69337 9.16 126 132 132
-0.725122 2.69337 9.16 124 133 131
-0.715876 2.69631 9.17 126 135 133
-0.705838 2.69631 9.17 126 135 133
-0.695801 2.69631 9.17 126 135 133
-0.685763 2.69631 9.17 128 137 135
-0.675726 2.69631 9.17 129 138 136
-0.666414 2.69925 9.18 129 139 134
-0.656366 2.69925 9.18 125 135 130
-0.646318 2.69925 9.18 118 128 123
-0.636962 2.70219 9.19 124 134 129
-0.626903 2.70219 9.19 128 138 133
-0.617515 2.70513 9.2 130 140 135
-0.607444 2.70513 9.2 130 140 135
-0.598023 2.70807 9.21 128 138 133
-0.587942 2.70807 9.21 130 137 133
-0.577861 2.70807 9.21 130 137 133
-0.56778 2.70807 9.21 130 137 133
-0.557698 2.70807 9.21 130 137 133
-0.547617 2.70807 9.21 133 138 134
-0.538119 2.71101 9.22 134 139 135
-0.528027 2.71101 9.22 136 141 137
-0.518497 2.71395 9.23 136 141 137
-0.508394 2.71395 9.23 135 140 136
-0.49829 2.71395 9.23 135 140 136
-0.488716 2.71689 9.24 135 140 136
-0.47912 2.71983 9.25 136 141 137
-0.469502 2.72277 9.26 134 141 137
-0.459862 2.72571 9.27 133 140 136
-0.449715 2.72571 9.27 133 140 136
-0.439568 2.72571 9.27 133 140 136
-0.429884 2.72865 9.28 133 140 136
-0.419727 2.72865 9.28 134 141 137
-0.409569 2.72865 9.28 133 143 138
-0.399411 2.72865 9.28 133 143 138
-0.389253 2.72865 9.28 132 142 137
-0.379095 2.72865 9.28 132 142 137
-0.369335 2.73159 9.29 133 143 138
-0.359166 2.73159 9.29 135 145 140
-0.349748 2.73747 9.31 135 145 140
-0.339922 2.74041 9.32 136 146 141
-0.330074 2.74335 9.33 136 145 143
-0.320205 2.74629 9.34 136 145 143
-0.310313 2.74923 9.35 137 143 142
-0.300399 2.75218 9.36 137 143 142
-0.290464 2.75512 9.37 139 145 144
-0.280208 2.75512 9.37 140 146 145
-0.269951 2.75512 9.37 140 146 145
-0.259695 2.75512 9.37 140 146 145
-0.249438 2.75512 9.37 140 146 145
-0.239182 2.75512 9.37 139 145 144
-0.228926 2.75512 9.37 139 145 144
-0.218436 2.75218 9.36 140 146 145
-0.207968 2.74923 9.35 138 144 143
-0.197733 2.74923 9.35 137 143 142
-0.187499 2.74923 9.35 137 143 142
-0.177075 2.74629 9.34 138 144 143
-0.166851 2.74629 9.34 140 146 145
-0.156628 2.74629 9.34 142 148 147
-0.146404 2.74629 9.34 144 150 149
-0.13618 2.74629 9.34 141 147 146
-0.125957 2.74629 9.34 140 146 145
-0.115733 2.74629 9.34 140 146 145
-0.10551 2.74629 9.34 140 146 145
-0.0952862 2.74629 9.34 144 150 149
-0.0850626 2.74629 9.34 142 148 147
-0.0749192 2.74923 9.35 142 148 147
-0.0646847 2.74923 9.35 141 147 146
-0.0544502 2.74923 9.35 140 146 145
-0.0442157 2.74923 9.35 141 147 146
-0.0340175 2.75218 9.36 142 148 147
-0.0237466 2.74923 9.35 145 152 148
-0.0135121 2.74923 9.35 145 152 148
-0.00327411 2.74629 9.34 145 152 148
0.00694945 2.74629 9.34 144 151 147
0.017173 2.74629 9.34 145 152 148
0.0273673 2.74335 9.33 146 153 149
0.0375799 2.74335 9.33 146 153 149
0.0477413 2.74041 9.32 146 153 149
0.0579429 2.74041 9.32 146 153 149
0.0680715 2.73747 9.31 145 152 148
0.0782622 2.73747 9.31 144 150 149
0.088453 2.73747 9.31 144 150 149
0.0986437 2.73747 9.31 142 148 147
0.108834 2.73747 9.31 145 151 150
0.119153 2.74041 9.32 146 152 151
0.129355 2.74041 9.32 145 151 150
0.139556 2.74041 9.32 142 148 147
0.149919 2.74335 9.33 142 148 147
0.160131 2.74335 9.33 144 150 149
0.170527 2.74629 9.34 145 151 150
0.18075 2.74629 9.34 145 151 150
0.190974 2.74629 9.34 145 151 150
0.201197 2.74629 9.34 146 152 151
0.211421 2.74629 9.34 146 152 151
0.221644 2.74629 9.34 141 147 146
0.231868 2.74629 9.34 145 151 150
0.242091 2.74629 9.34 143 152 150
0.252045 2.74335 9.33 143 152 150
0.262258 2.74335 9.33 143 152 150
0.27247 2.74335 9.33 143 152 150
0.282683 2.74335 9.33 143 152 150
0.292895 2.74335 9.33 143 152 150
0.303108 2.74335 9.33 143 152 150
0.313321 2.74335 9.33 143 152 150
0.32388 2.74629 9.34 142 151 149
0.334104 2.74629 9.34 142 151 149
0.344327 2.74629 9.34 142 151 149
0.354551 2.74629 9.34 143 152 150
0.365165 2.74923 9.35 144 153 151
0.375399 2.74923 9.35 145 154 152
0.385634 2.74923 9.35 144 153 151
0.396292 2.75218 9.36 142 151 149
0.406972 2.75512 9.37 143 152 150
0.417228 2.75512 9.37 142 151 149
0.427941 2.75806 9.38 140 149 147
0.438675 2.761 9.39 140 149 147
0.449432 2.76394 9.4 139 148 146
0.46021 2.76688 9.41 143 152 150
0.47151 2.77276 9.43 145 154 152
0.482343 2.7757 9.44 144 153 151
0.493198 2.77864 9.45 143 152 150
0.503542 2.77864 9.45 139 148 146
0.51443 2.78158 9.46 139 148 146
0.524785 2.78158 9.46 140 149 147
0.534574 2.77864 9.45 142 151 149
0.544918 2.77864 9.45 143 152 150
0.555262 2.77864 9.45 144 150 149
0.565007 2.7757 9.44 141 147 146
0.57534 2.7757 9.44 141 147 146
0.585673 2.7757 9.44 145 151 150
0.596638 2.77864 9.45 144 151 147
0.607624 2.78158 9.46 142 149 145
0.617979 2.78158 9.46 142 149 145
0.629662 2.78746 9.48 142 149 145
0.640714 2.7904 9.49 142 149 145
0.651788 2.79334 9.5 142 149 145
0.662884 2.79628 9.51 142 148 147
0.674001 2.79922 9.52 142 148 147
0.684422 2.79922 9.52 139 145 144
0.694843 2.79922 9.52 138 144 143
0.705263 2.79922 9.52 139 145 144
0.716436 2.80216 9.53 139 145 144
0.726867 2.80216 9.53 145 151 150
0.737299 2.80216 9.53 145 151 150
0.746946 2.79922 9.52 130 136 135
0.758162 2.80216 9.53 134 140 139
0.768593 2.80216 9.53 135 141 140
0.779025 2.80216 9.53 132 138 137
0.789456 2.80216 9.53 120 126 126
0.799888 2.80216 9.53 109 115 115
0.810319 2.80216 9.53 107 112 115
0.820751 2.80216 9.53 102 107 110
0.831183 2.80216 9.53 98 106 108
0.841614 2.80216 9.53 95 103 105
0.852046 2.80216 9.53 103 111 113
0.863382 2.8051 9.54 103 111 113
0.873825 2.8051 9.54 102 110 112
0.884267 2.8051 9.54 102 110 112
0.895648 2.80804 9.55 100 108 110
0.90705 2.81098 9.56 98 106 108
0.918474 2.81392 9.57 101 109 111
0.928949 2.81392 9.57 101 109 111
0.940406 2.81686 9.58 102 110 112
0.951885 2.8198 9.59 102 110 112
0.963386 2.82274 9.6 102 110 112
0.974908 2.82568 9.61 100 108 110
0.986453 2.82862 9.62 98 106 108
0.999056 2.83451 9.64 98 106 108
1.0117 2.84039 9.66 98 106 108
1.02333 2.84333 9.67 98 106 108
1.03606 2.84921 9.69 100 108 110
1.04882 2.85509 9.71 100 108 110
1.06164 2.86097 9.73 98 106 108
1.07449 2.86685 9.75 97 105 107
1.08628 2.86979 9.76 97 106 105
1.09921 2.87567 9.78 94 103 102
1.11105 2.87861 9.79 95 104 103
1.12405 2.88449 9.81 97 106 105
1.13595 2.88743 9.82 97 106 105
1.1467 2.88743 9.82 97 106 105
1.1598 2.89331 9.84 97 106 105
1.17176 2.89625 9.85 98 107 106
1.18495 2.90213 9.87 97 106 105
1.19696 2.90507 9.88 96 105 104
1.209 2.90801 9.89 96 105 104
1.22106 2.91095 9.9 96 105 104
1.23314 2.91389 9.91 96 105 103
1.2465 2.91978 9.93 96 105 103
1.25863 2.92272 9.94 96 105 103
1.26951 2.92272 9.94 100 109 107
1.28297 2.9286 9.96 104 111 107
1.29387 2.9286 9.96 106 113 109
1.30608 2.93154 9.97 109 115 108
1.317 2.93154 9.97 106 112 105
1.32924 2.93448 9.98 104 106 100
1.33882 2.93154 9.97 86 88 82
1.34974 2.93154 9.97 62 64 58
-2.06227 2.80375 9.5 83 84 81
-2.05403 2.8067 9.51 107 108 105
-2.04792 2.8126 9.53 106 112 105
-2.03963 2.81555 9.54 108 114 107
-2.03131 2.8185 9.55 101 113 103
-2.02298 2.82145 9.56 102 114 104
-2.01462 2.8244 9.57 102 114 104
-2.00624 2.82736 9.58 104 116 106
-1.99575 2.82736 9.58 107 117 105
-1.98734 2.83031 9.59 107 117 105
-1.97684 2.83031 9.59 109 119 107
-1.96429 2.82736 9.58 109 119 107
-1.9538 2.82736 9.58 111 118 109
-1.94129 2.8244 9.57 111 118 109
-1.92678 2.8185 9.55 111 118 109
-1.91432 2.81555 9.54 113 120 111
-1.90188 2.8126 9.53 112 119 110
-1.88748 2.8067 9.51 111 118 109
-1.87312 2.80079 9.49 112 119 110
-1.85881 2.79489 9.47 113 120 111
-1.84454 2.78899 9.45 113 120 111
-1.82837 2.78014 9.42 114 121 112
-1.81227 2.77128 9.39 116 123 114
-1.79816 2.76538 9.37 116 123 114
-1.78217 2.75653 9.34 118 125 116
-1.76626 2.74767 9.31 119 126 117
-1.75041 2.73882 9.28 121 128 119
-1.7365 2.73291 9.26 115 122 113
-1.7245 2.72996 9.25 118 126 119
-1.71252 2.72701 9.24 145 153 146
-1.70057 2.72406 9.23 153 162 160
-1.68863 2.72111 9.22 148 157 155
-1.67672 2.71816 9.21 146 155 153
-1.66664 2.71816 9.21 148 157 155
-1.65656 2.71816 9.21 152 161 159
-1.64648 2.71816 9.21 152 161 159
-1.63462 2.71521 9.2 150 160 155
-1.62455 2.71521 9.2 151 161 156
-1.61448 2.71521 9.2 152 162 157
-1.60266 2.71226 9.19 153 163 158
-1.5926 2.71226 9.19 155 165 160
-1.58082 2.7093 9.18 152 162 157
-1.56735 2.7034 9.16 152 162 157
-1.55562 2.70045 9.15 154 164 159
-1.54392 2.6975 9.14 153 163 158
-1.53056 2.6916 9.12 152 162 157
-1.51891 2.68864 9.11 151 161 156
-1.50562 2.68274 9.09 152 162 157
-1.49403 2.67979 9.08 154 164 159
-1.48246 2.67684 9.07 155 165 160
-1.4709 2.67389 9.06 155 165 160
-1.46099 2.67389 9.06 154 164 159
-1.45107 2.67389 9.06 153 164 156
-1.44115 2.67389 9.06 151 162 154
-1.43124 2.67389 9.06 150 158 151
-1.42289 2.67684 9.07 148 156 149
-1.41296 2.67684 9.07 159 170 162
-1.40303 2.67684 9.07 153 164 156
-1.3931 2.67684 9.07 153 164 156
-1.38317 2.67684 9.07 153 164 156
-1.37325 2.67684 9.07 157 168 160
-1.36332 2.67684 9.07 148 159 151
-1.35339 2.67684 9.07 147 158 150
-1.34494 2.67979 9.08 150 161 153
-1.33501 2.67979 9.08 148 159 151
-1.32507 2.67979 9.08 152 163 155
-1.31513 2.67979 9.08 143 154 146
-1.30519 2.67979 9.08 140 151 143
-1.29525 2.67979 9.08 144 155 147
-1.28531 2.67979 9.08 142 153 145
-1.27537 2.67979 9.08 138 149 141
-1.26404 2.67684 9.07 139 150 142
-1.25411 2.67684 9.07 131 142 134
-1.24418 2.67684 9.07 126 137 129
-1.23425 2.67684 9.07 121 132 124
-1.22433 2.67684 9.07 119 130 122
-1.2144 2.67684 9.07 116 124 117
-1.20314 2.67389 9.06 110 118 111
-1.19323 2.67389 9.06 111 117 110
-0.791835 2.6916 9.12 112 117 120
-0.782709 2.69455 9.13 118 123 126
-0.773562 2.6975 9.14 120 125 128
-0.763557 2.6975 9.14 119 125 125
-0.754377 2.70045 9.15 119 125 125
-0.744361 2.70045 9.15 126 132 132
-0.734346 2.70045 9.15 126 132 132
-0.725122 2.7034 9.16 126 132 132
-0.715095 2.7034 9.16 130 136 136
-0.705069 2.7034 9.16 131 140 138
-0.695042 2.7034 9.16 130 139 137
-0.685016 2.7034 9.16 129 138 136
-0.674989 2.7034 9.16 130 139 137
-0.664963 2.7034 9.16 131 141 136
-0.654936 2.7034 9.16 132 142 137
-0.645614 2.70635 9.17 129 139 134
-0.635576 2.70635 9.17 126 136 131
-0.625539 2.70635 9.17 130 140 135
-0.616172 2.7093 9.18 131 141 136
-0.606124 2.7093 9.18 131 141 136
-0.596075 2.7093 9.18 129 139 134
-0.586665 2.71226 9.19 130 137 133
-0.576606 2.71226 9.19 131 138 134
-0.566547 2.71226 9.19 131 138 134
-0.556487 2.71226 9.19 131 138 134
-0.546428 2.71226 9.19 133 138 134
-0.536368 2.71226 9.19 134 139 135
-0.526882 2.71521 9.2 135 140 136
-0.516811 2.71521 9.2 137 142 138
-0.506741 2.71521 9.2 137 142 138
-0.496671 2.71521 9.2 137 142 138
-0.487129 2.71816 9.21 137 142 138
-0.477566 2.72111 9.22 137 142 138
-0.467981 2.72406 9.23 137 142 138
-0.458374 2.72701 9.24 143 148 144
-0.448745 2.72996 9.25 135 141 140
-0.43862 2.72996 9.25 134 140 139
-0.428495 2.72996 9.25 133 139 138
-0.41837 2.72996 9.25 133 139 138
-0.408245 2.72996 9.25 134 141 137
-0.39812 2.72996 9.25 135 142 138
-0.387995 2.72996 9.25 132 142 137
-0.377869 2.72996 9.25 133 143 138
-0.368142 2.73291 9.26 135 145 140
-0.358393 2.73587 9.27 136 146 141
-0.348246 2.73587 9.27 136 146 141
-0.338828 2.74177 9.29 135 145 140
-0.329367 2.74767 9.31 135 144 142
-0.319519 2.75062 9.32 136 145 143
-0.309649 2.75357 9.33 136 145 143
-0.299758 2.75653 9.34 137 146 144
-0.289534 2.75653 9.34 137 146 144
-0.27931 2.75653 9.34 138 147 145
-0.269087 2.75653 9.34 138 147 145
-0.25914 2.75948 9.35 138 147 145
-0.24864 2.75653 9.34 138 147 145
-0.238416 2.75653 9.34 138 147 145
-0.227948 2.75357 9.33 138 147 145
-0.217736 2.75357 9.33 137 146 144
-0.207301 2.75062 9.32 138 144 143
-0.197099 2.75062 9.32 138 144 143
-0.186897 2.75062 9.32 139 145 144
-0.176696 2.75062 9.32 138 144 143
-0.166315 2.74767 9.31 139 145 144
-0.156125 2.74767 9.31 140 146 145
-0.145934 2.74767 9.31 142 148 147
-0.135743 2.74767 9.31 141 147 146
-0.125552 2.74767 9.31 140 146 145
-0.115362 2.74767 9.31 139 145 144
-0.105171 2.74767 9.31 139 145 144
-0.0951842 2.75357 9.33 142 148 147
-0.0849716 2.75357 9.33 141 147 146
-0.0747589 2.75357 9.33 142 148 147
-0.0645463 2.75357 9.33 142 148 147
-0.0543337 2.75357 9.33 141 147 146
-0.0441684 2.75653 9.34 142 148 147
-0.0339448 2.75653 9.34 145 151 150
-0.0236958 2.75357 9.33 144 151 147
-0.0134832 2.75357 9.33 145 152 148
-0.0032671 2.75062 9.32 146 153 149
0.00693457 2.75062 9.32 145 152 148
0.0171179 2.74767 9.31 145 152 148
0.0273086 2.74767 9.31 147 154 150
0.0374993 2.74767 9.31 148 155 151
0.0476388 2.74472 9.3 147 154 150
0.0577564 2.74177 9.29 146 153 149
0.0679253 2.74177 9.29 144 151 147
0.0780941 2.74177 9.29 144 151 147
0.0882629 2.74177 9.29 144 151 147
0.0984318 2.74177 9.29 144 151 147
0.108718 2.74472 9.3 144 151 147
0.118897 2.74472 9.3 145 152 148
0.129216 2.74767 9.31 144 151 147
0.139407 2.74767 9.31 142 149 145
0.149758 2.75062 9.32 144 151 147
0.15996 2.75062 9.32 144 151 147
0.170161 2.75062 9.32 144 151 147
0.180557 2.75357 9.33 144 150 149
0.190565 2.75062 9.32 144 150 149
0.200982 2.75357 9.33 145 151 150
0.211194 2.75357 9.33 145 151 150
0.22117 2.75062 9.32 144 150 149
0.231371 2.75062 9.32 142 148 147
0.241573 2.75062 9.32 143 152 150
0.251775 2.75062 9.32 143 152 150
0.261695 2.74767 9.31 143 152 150
0.271886 2.74767 9.31 143 152 150
0.282077 2.74767 9.31 143 152 150
0.292268 2.74767 9.31 144 153 151
0.302458 2.74767 9.31 144 153 151
0.312649 2.74767 9.31 145 154 152
0.32284 2.74767 9.31 144 153 151
0.333388 2.75062 9.32 143 152 150
0.34359 2.75062 9.32 144 153 151
0.353792 2.75062 9.32 144 153 151
0.363993 2.75062 9.32 145 154 152
0.374596 2.75357 9.33 145 154 152
0.384809 2.75357 9.33 146 155 153
0.395022 2.75357 9.33 143 152 150
0.405234 2.75357 9.33 143 152 150
0.415892 2.75653 9.34 140 149 147
0.426572 2.75948 9.35 139 148 146
0.437741 2.76538 9.37 138 147 145
0.448475 2.76833 9.38 138 147 145
0.458743 2.76833 9.38 140 149 147
0.47001 2.77423 9.4 144 153 151
0.48081 2.77718 9.41 144 153 151
0.491632 2.78014 9.42 143 152 150
0.502476 2.78309 9.43 140 149 147
0.513342 2.78604 9.44 141 147 146
0.523675 2.78604 9.44 144 150 149
0.534008 2.78604 9.44 145 151 150
0.543765 2.78309 9.43 144 150 149
0.554087 2.78309 9.43 142 148 147
0.564409 2.78309 9.43 141 147 146
0.574731 2.78309 9.43 140 146 145
0.585053 2.78309 9.43 142 148 147
0.595375 2.78309 9.43 144 150 149
0.606339 2.78604 9.44 144 150 149
0.617326 2.78899 9.45 144 151 147
0.628334 2.79194 9.46 142 149 145
0.640039 2.79784 9.48 140 147 143
0.651102 2.80079 9.49 140 147 143
0.66149 2.80079 9.49 140 146 145
0.672585 2.80375 9.5 139 145 144
0.682984 2.80375 9.5 139 145 144
0.694113 2.8067 9.51 139 145 144
0.704522 2.8067 9.51 141 147 146
0.714932 2.8067 9.51 142 148 147
0.725342 2.8067 9.51 137 143 142
0.735751 2.8067 9.51 133 139 138
0.746161 2.8067 9.51 113 119 118
0.756571 2.8067 9.51 119 125 124
0.76698 2.8067 9.51 109 115 114
0.778207 2.80965 9.52 109 115 114
0.789456 2.8126 9.53 112 117 120
0.799888 2.8126 9.53 96 101 104
0.810319 2.8126 9.53 102 107 110
0.820751 2.8126 9.53 104 109 112
0.831183 2.8126 9.53 102 107 110
0.842497 2.81555 9.54 100 105 108
0.85294 2.81555 9.54 100 105 108
0.863382 2.81555 9.54 102 107 110
0.873825 2.81555 9.54 100 108 110
0.885194 2.8185 9.55 100 108 110
0.895648 2.8185 9.55 97 105 107
0.90705 2.82145 9.56 97 105 107
0.918474 2.8244 9.57 101 109 111
0.928949 2.8244 9.57 101 109 111
0.940406 2.82736 9.58 101 109 111
0.951885 2.83031 9.59 101 109 111
0.964389 2.83621 9.61 101 109 111
0.974908 2.83621 9.61 98 106 108
0.987478 2.84211 9.63 100 108 110
0.999056 2.84506 9.64 100 108 110
1.0117 2.85097 9.66 98 106 108
1.02439 2.85687 9.68 98 106 108
1.03713 2.86277 9.7 98 106 108
1.0499 2.86867 9.72 98 106 108
1.06164 2.87163 9.73 98 106 108
1.07449 2.87753 9.75 98 106 108
1.08739 2.88343 9.77 100 108 110
1.10033 2.88933 9.79 96 104 106
1.11218 2.89229 9.8 96 104 106
1.12405 2.89524 9.81 98 106 108
1.13595 2.89819 9.82 98 106 108
1.14903 2.90409 9.84 96 104 106
1.16098 2.90704 9.85 96 104 106
1.17295 2.90999 9.86 98 106 108
1.18495 2.91294 9.87 95 104 103
1.19696 2.9159 9.88 96 105 104
1.209 2.91885 9.89 96 105 104
1.22106 2.9218 9.9 95 104 103
1.23314 2.92475 9.91 95 104 102
1.2465 2.93065 9.93 97 106 104
1.25737 2.93065 9.93 104 113 111
1.26951 2.9336 9.94 112 121 119
1.28039 2.9336 9.94 91 97 90
1.29127 2.9336 9.94 81 87 80
1.30346 2.93655 9.95 82 85 77
1.31436 2.93655 9.95 71 74 66
-2.04148 2.81415 9.5 105 107 101
-2.03322 2.81711 9.51 115 117 111
-2.02706 2.82304 9.53 104 113 104
-2.01874 2.826 9.54 102 111 102
-2.01041 2.82896 9.55 101 113 103
-2.00414 2.83489 9.57 103 115 105
-1.99367 2.83489 9.57 107 116 107
-1.98319 2.83489 9.57 107 116 107
-1.97478 2.83785 9.58 111 118 109
-1.96224 2.83489 9.57 111 118 109
-1.95177 2.83489 9.57 114 117 109
-1.93926 2.83193 9.56 115 118 110
-1.92678 2.82896 9.55 115 118 110
-1.91432 2.826 9.54 117 120 112
-1.89989 2.82008 9.52 116 119 111
-1.88748 2.81711 9.51 115 118 110
-1.8751 2.81415 9.5 113 120 111
-1.86077 2.80823 9.48 113 120 111
-1.84454 2.79934 9.45 112 119 110
-1.83031 2.79342 9.43 112 119 110
-1.8142 2.78453 9.4 114 121 112
-1.79816 2.77564 9.37 114 121 112
-1.78217 2.76676 9.34 114 121 112
-1.76626 2.75787 9.31 115 122 113
-1.75041 2.74898 9.28 116 123 114
-1.7365 2.74306 9.26 123 130 121
-1.72264 2.73713 9.24 114 123 114
-1.71067 2.73417 9.23 105 114 105
-1.69872 2.73121 9.22 122 132 127
-1.6868 2.72825 9.21 147 157 152
-1.67672 2.72825 9.21 152 163 161
-1.66483 2.72528 9.2 152 163 161
-1.65476 2.72528 9.2 151 160 158
-1.64469 2.72528 9.2 150 159 157
-1.63462 2.72528 9.2 151 161 156
-1.62278 2.72232 9.19 151 161 156
-1.61272 2.72232 9.19 150 160 155
-1.60266 2.72232 9.19 152 162 157
-1.59087 2.71936 9.18 155 165 160
-1.5791 2.7164 9.17 153 163 158
-1.56735 2.71343 9.16 151 161 156
-1.55392 2.70751 9.14 153 163 158
-1.54223 2.70455 9.13 151 161 156
-1.53056 2.70159 9.12 152 162 157
-1.51724 2.69566 9.1 151 161 156
-1.50562 2.6927 9.09 151 161 156
-1.49238 2.68677 9.07 152 162 157
-1.48082 2.68381 9.06 154 164 159
-1.46928 2.68085 9.05 154 165 157
