ply
format ascii 1.0
comment Created by Open3D
element vertex 1450
property double x
property double y
property double z
property uchar red
property uchar green
property uchar blue
end_header
-0.555276 1.66172 9.17 167 163 156
-0.546428 1.66535 9.19 167 163 156
-0.537536 1.66897 9.21 164 160 153
-0.5286 1.6726 9.23 160 156 149
-0.51962 1.67622 9.25 159 155 148
-0.510046 1.67803 9.26 157 153 146
-0.49991 1.67803 9.26 159 155 148
-0.490303 1.67985 9.27 158 154 147
-0.483782 1.69253 9.34 158 154 147
-0.477107 1.70522 9.41 159 155 148
-0 0 0 158 154 147
-0 0 0 157 153 146
-0.487461 1.86287 10.28 158 154 147
-0.476671 1.86468 10.29 158 153 148
-0.465408 1.86468 10.29 158 153 148
-0.455027 1.86831 10.31 150 145 140
-0.443742 1.86831 10.31 153 148 143
-0.433715 1.87374 10.34 157 152 147
-0.423214 1.87737 10.36 157 152 147
-0.412271 1.87918 10.37 156 151 146
-0.401694 1.8828 10.39 158 153 148
-0.390321 1.8828 10.39 155 153 147
-0.378948 1.8828 10.39 155 153 147
-0.367575 1.8828 10.39 156 154 148
-0 0 0 157 155 149
-0 0 0 157 155 149
-0 0 0 154 152 146
-0 0 0 153 151 145
-0 0 0 154 152 146
-0.301066 1.89368 10.45 154 151 148
-0.290459 1.89911 10.48 154 151 148
-0.27952 1.90274 10.5 153 150 147
-0.268537 1.90636 10.52 151 148 145
-0.258977 1.92086 10.6 151 148 145
-0.24714 1.91905 10.59 151 148 145
-0.235104 1.91542 10.57 151 148 145
-0.223534 1.91542 10.57 150 147 144
-0.211964 1.91542 10.57 150 147 144
-0.200584 1.91724 10.58 149 146 143
-0.189181 1.91905 10.59 148 145 142
-0.177757 1.92086 10.6 148 145 142
-0.167252 1.93354 10.67 151 148 145
-0.155864 1.93717 10.69 149 146 143
-0.145242 1.95167 10.77 148 145 142
-0.133081 1.94623 10.74 149 146 143
-0.121551 1.94985 10.76 149 146 143
-0.109773 1.94985 10.76 148 145 142
-0.0979951 1.94985 10.76 149 146 143
-0.0860569 1.94623 10.74 150 147 144
-0.0742317 1.94442 10.73 150 147 144
-0.0625449 1.94623 10.74 148 145 142
-0.0508362 1.94804 10.75 147 144 141
-0.0390329 1.94623 10.74 147 144 141
-0.0272261 1.94261 10.72 149 146 143
-0.0154775 1.94079 10.71 147 144 141
-0.00374735 1.93717 10.69 151 148 145
0.0079316 1.93173 10.66 165 162 159
0.0195817 1.92992 10.65 168 166 160
0.0311805 1.9263 10.63 170 168 162
0.042655 1.91905 10.59 166 161 156
0.0540931 1.91361 10.56 164 159 154
0.0654034 1.90636 10.52 164 159 154
0.0766261 1.89911 10.48 164 159 154
0.0877613 1.89187 10.44 156 151 146
0.0988089 1.88462 10.4 148 143 138
0.109663 1.87556 10.35 151 146 141
0.120524 1.86831 10.31 144 139 134
0.131554 1.86468 10.29 146 141 136
0.14254 1.86106 10.27 148 143 138
0.153632 1.85925 10.26 140 137 134
0.164862 1.85925 10.26 135 132 129
0.176093 1.85925 10.26 98 94 94
0.187324 1.85925 10.26 85 81 81
0.198941 1.86287 10.28 72 68 69
0.210807 1.86831 10.31 65 61 62
0.222308 1.87012 10.32 64 60 60
0.234283 1.87556 10.35 64 60 60
0.24585 1.87737 10.36 72 65 66
0.257934 1.8828 10.39 83 76 77
0.269826 1.88643 10.41 102 94 92
0.282031 1.89187 10.44 123 115 113
0 0 0 150 142 140
0 0 0 166 158 156
0.319344 1.90999 10.54 166 158 156
0.33245 1.91905 10.59 163 155 153
0.345991 1.92992 10.65 138 128 126
0.357985 1.93173 10.66 86 76 74
0.37 1.93354 10.67 84 73 74
0.382037 1.93536 10.68 90 79 80
0.394465 1.93898 10.7 87 78 79
0.406177 1.93898 10.7 76 67 68
0.41828 1.94079 10.71 109 103 101
-0.582197 1.66265 9.12 159 152 147
-0.572841 1.66448 9.13 170 163 158
-0.564081 1.66812 9.15 168 162 155
-0.555276 1.67177 9.17 168 162 155
-0.546428 1.67542 9.19 169 163 156
-0.537536 1.67906 9.21 170 164 157
-0.5286 1.68271 9.23 169 164 154
-0.51962 1.68635 9.25 169 164 154
-0.510046 1.68818 9.26 170 165 155
-0.50045 1.69 9.27 169 164 154
-0.490832 1.69182 9.28 162 157 147
-0.483782 1.70276 9.34 159 154 144
-0.478121 1.71917 9.43 168 163 153
-0 0 0 159 154 144
-0 0 0 153 147 140
-0.477029 1.83402 10.06 159 153 146
-0.470649 1.85225 10.16 158 152 145
-0.462242 1.86319 10.22 159 153 146
-0.451938 1.86684 10.24 158 154 147
-0.440729 1.86684 10.24 156 152 145
-0.430779 1.87231 10.27 157 152 147
-0.419946 1.87413 10.28 156 151 146
-0.409091 1.87595 10.29 157 152 147
-0.398214 1.87778 10.3 158 153 148
-0.387315 1.8796 10.31 157 152 147
-0.37603 1.8796 10.31 156 151 146
-0 0 0 156 151 146
-0.352774 1.87595 10.29 157 152 147
-0.34151 1.87595 10.29 157 152 147
-0.330889 1.8796 10.31 156 151 146
-0 0 0 154 152 146
-0.308916 1.88325 10.33 154 152 146
-0 0 0 154 152 146
-0.287133 1.88872 10.36 154 152 146
-0.276326 1.89236 10.38 154 151 148
-0.265474 1.89601 10.4 153 150 147
-0.255067 1.9033 10.44 150 147 144
-0.243873 1.90512 10.45 151 148 145
-0.232212 1.9033 10.44 151 148 145
-0.220996 1.90512 10.45 151 148 145
-0.209558 1.90512 10.45 150 147 144
-0.198309 1.90695 10.46 148 145 142
-0.187038 1.90877 10.47 147 144 141
-0.17541 1.90695 10.46 148 145 142
-0.164273 1.91059 10.48 149 146 143
-0.152656 1.90877 10.47 150 147 144
-0.141466 1.91242 10.49 151 148 145
-0.131718 1.93794 10.63 150 147 144
-0.119856 1.93429 10.61 148 145 142
-0.109263 1.95252 10.71 146 143 140
-0.0970844 1.94341 10.66 148 145 142
-0.0852557 1.93976 10.64 147 144 141
-0.0737475 1.94341 10.66 143 140 137
-0.0621955 1.94706 10.68 141 138 135
-0.0505997 1.9507 10.7 147 144 141
-0.0389239 1.95252 10.71 137 134 131
-0.0271753 1.9507 10.7 143 140 137
-0.0154197 1.94523 10.67 158 155 152
-0.00372982 1.93976 10.64 169 167 161
0.00790184 1.93612 10.62 168 166 160
0.0194713 1.93065 10.59 163 161 155
0.0310045 1.927 10.57 163 161 155
0.0424536 1.92153 10.54 165 160 155
0.0537858 1.91424 10.5 164 159 154
0.0650304 1.90695 10.46 161 156 151
0.0761874 1.89965 10.42 158 153 148
0.087341 1.89419 10.39 150 145 140
0.0983339 1.88689 10.35 149 144 139
0.109239 1.8796 10.31 148 143 138
0.120174 1.87413 10.28 149 144 139
0.131043 1.86866 10.25 153 148 143
0.142124 1.86684 10.24 125 120 115
0.153033 1.86319 10.22 107 105 99
0.16422 1.86319 10.22 79 77 71
0.175406 1.86319 10.22 79 75 75
0.186958 1.86684 10.24 91 87 87
0.198554 1.87049 10.26 107 103 104
0.210194 1.87413 10.28 102 98 99
0.221877 1.87778 10.3 93 89 90
0.233604 1.88142 10.32 81 77 78
0.245138 1.88325 10.33 78 71 72
0.25719 1.88872 10.36 65 58 59
0.269048 1.89236 10.38 60 51 52
0.281491 1.89965 10.42 68 59 60
0 0 0 107 96 97
0 0 0 155 144 145
0 0 0 148 139 140
0.332136 1.92882 10.58 162 153 154
0.345667 1.93976 10.64 130 121 122
0.357985 1.94341 10.66 87 78 79
0.37 1.94523 10.67 77 66 67
0.382395 1.94888 10.69 84 73 74
0.394465 1.9507 10.7 77 68 69
0.406557 1.95252 10.71 73 64 65
0.41867 1.95435 10.72 92 86 84
-0.582197 1.67264 9.12 159 151 144
-0.572841 1.67448 9.13 163 155 148
-0.564081 1.67815 9.15 165 158 148
-0.555276 1.68181 9.17 170 163 153
-0.546428 1.68548 9.19 170 163 153
-0.537536 1.68915 9.21 171 164 154
-0.5286 1.69282 9.23 174 167 157
-0.51962 1.69649 9.25 174 167 157
-0.510046 1.69832 9.26 174 168 156
-0.50045 1.70015 9.27 178 172 160
-0.490832 1.70199 9.28 177 173 161
-0.48171 1.70566 9.3 179 175 163
-0.474572 1.71666 9.36 176 172 160
-0 0 0 173 169 157
-0 0 0 165 161 149
-0.472287 1.8267 9.96 165 161 149
-0.466943 1.84871 10.08 163 158 148
-0.459076 1.86155 10.15 166 161 151
-0.448407 1.86338 10.16 167 162 152
-0.437286 1.86338 10.16 152 147 137
-0.427004 1.86705 10.18 154 148 141
-0.416678 1.87072 10.2 160 154 147
-0.40591 1.87255 10.21 166 160 153
-0.395121 1.87439 10.22 160 154 147
-0.383934 1.87439 10.22 155 151 144
-0.372748 1.87439 10.22 153 149 142
-0.360853 1.87072 10.2 152 148 141
-0.349688 1.87072 10.2 153 149 142
-0.338191 1.86889 10.19 155 150 145
-0.327358 1.87072 10.2 155 150 145
-0.316193 1.87072 10.2 156 151 146
-0.305627 1.87439 10.22 156 151 146
-0.294728 1.87622 10.23 156 151 146
-0 0 0 156 151 146
-0.273131 1.88172 10.26 155 150 145
-0 0 0 153 148 143
-0.251891 1.89089 10.31 155 150 145
-0.241073 1.89456 10.33 155 150 145
-0.229543 1.89273 10.32 150 148 142
-0.218458 1.89456 10.33 151 149 143
-0 0 0 151 148 145
-0 0 0 151 148 145
-0 0 0 150 147 144
-0.173397 1.8964 10.34 150 147 144
-0 0 0 149 146 143
-0 0 0 150 147 144
-0 0 0 150 147 144
-0 0 0 149 146 143
-0.120534 1.95692 10.67 144 141 138
-0.106712 1.9184 10.46 147 144 141
-0.0955361 1.92391 10.49 150 148 142
-0.0842941 1.92941 10.52 150 148 142
-0.0730557 1.93675 10.56 155 153 147
-0.0616131 1.94041 10.58 163 161 155
-0.0501741 1.94592 10.61 177 176 168
-0.0385604 1.94592 10.61 171 170 162
-0.0269467 1.94592 10.61 170 169 161
-0.0152897 1.94041 10.58 172 171 163
-0.00369827 1.93491 10.55 166 165 157
0.00784232 1.93308 10.54 164 163 155
0.0193426 1.92941 10.52 162 161 153
0.0307698 1.92391 10.49 161 160 152
0.0421314 1.9184 10.46 165 161 154
0.0534272 1.9129 10.43 163 159 152
0.0645952 1.90557 10.39 161 157 150
0.0757487 1.90006 10.36 157 153 146
0 0 0 158 153 148
0.0979538 1.89089 10.31 155 150 145
0.108921 1.88539 10.28 149 144 139
0.119706 1.87806 10.24 155 150 145
0.130659 1.87439 10.22 149 144 139
0.141707 1.87255 10.21 108 103 98
0.152733 1.87072 10.2 86 81 76
0.163898 1.87072 10.2 77 72 67
0.175235 1.87255 10.21 88 82 80
0.244663 1.89089 10.31 74 67 68
0.256445 1.89456 10.33 58 51 52
0.268271 1.89823 10.35 47 40 41
0.28068 1.90557 10.39 47 40 41
0 0 0 55 46 48
0 0 0 99 90 92
0.318132 1.92574 10.5 137 129 134
0.331509 1.93675 10.56 156 148 153
0.345342 1.94958 10.63 160 153 154
0.358321 1.95692 10.67 131 124 125
0.370347 1.95875 10.68 79 72 73
0.382395 1.96059 10.69 68 61 62
0.394833 1.96426 10.71 74 66 64
0.406557 1.96426 10.71 105 97 95
0.419451 1.96976 10.74 113 105 103
0.431207 1.96976 10.74 141 133 131
-0.582197 1.68263 9.12 164 156 149
-0.572841 1.68448 9.13 161 153 146
-0.564081 1.68817 9.15 165 158 148
-0.555276 1.69186 9.17 167 160 150
-0.546428 1.69555 9.19 169 162 152
-0.537536 1.69924 9.21 171 164 154
-0.5286 1.70293 9.23 172 166 154
-0.51962 1.70662 9.25 174 168 156
-0.510597 1.71031 9.27 176 170 158
-0.50099 1.71215 9.28 179 173 161
-0.49189 1.71584 9.3 191 185 173
-0.483264 1.72138 9.33 197 191 179
-0.475586 1.7306 9.38 192 186 174
-0 0 0 202 196 184
-0 0 0 196 190 178
-0.47039 1.83023 9.92 195 189 177
-0.463701 1.84684 10.01 190 184 172
-0.45591 1.85975 10.08 185 179 167
-0.445318 1.8616 10.09 179 172 162
-0.434273 1.8616 10.09 174 167 157
-0.424068 1.86529 10.11 172 167 157
-0.413818 1.86898 10.13 163 158 148
-0.40273 1.86898 10.13 160 154 147
-0.391642 1.86898 10.13 155 149 142
-0.380553 1.86898 10.13 162 156 149
-0.369465 1.86898 10.13 158 152 145
-0.357669 1.86529 10.11 155 149 142
-0.345917 1.8616 10.09 157 151 144
-0.334873 1.8616 10.09 155 148 143
-0.323828 1.8616 10.09 158 151 146
-0.312783 1.8616 10.09 158 151 146
-0.302038 1.86344 10.1 158 151 146
-0.290406 1.85975 10.08 159 152 147
-0 0 0 157 150 145
-0 0 0 152 145 140
-0.259603 1.87636 10.17 152 145 140
-0.24896 1.88005 10.19 157 150 145
-0.238272 1.88374 10.21 159 152 147
-0.226874 1.88189 10.2 145 140 135
-0.215921 1.88374 10.21 151 146 141
-0 0 0 151 146 141
-0.193758 1.88558 10.22 150 145 140
-0.182572 1.88558 10.22 149 147 141
-0.171385 1.88558 10.22 155 153 147
-0.159884 1.88189 10.2 150 148 142
-0.147845 1.87082 10.14 144 142 136
-0.138094 1.88927 10.24 149 144 139
-0.125894 1.87451 10.16 151 146 141
-0.116354 1.90034 10.3 156 151 146
-0.10559 1.90957 10.35 164 159 154
-0.0945343 1.9151 10.38 162 160 154
-0.0834929 1.92248 10.42 166 164 158
-0.0723638 1.92986 10.46 178 176 170
-0.0610308 1.93355 10.48 177 175 169
-0.049654 1.93724 10.5 176 175 167
-0.0382333 1.94093 10.52 176 175 167
-0.0266927 1.93909 10.51 173 172 164
-0.015174 1.93724 10.5 170 169 161
-0.00367023 1.93171 10.47 166 165 157
0.00778279 1.92986 10.46 165 164 156
0.0191955 1.92617 10.44 165 161 154
0.0305352 1.92064 10.41 164 160 153
0.0418091 1.9151 10.38 164 160 153
0.0530174 1.90957 10.35 163 159 152
0.06416 1.90403 10.32 159 155 148
0.07531 1.90034 10.3 158 154 147
0.0864163 1.89665 10.28 156 151 146
0.0974788 1.89296 10.26 153 148 143
0.108497 1.88927 10.24 148 143 138
0.119472 1.88558 10.22 153 148 143
0.130403 1.88189 10.2 146 141 136
0.14143 1.88005 10.19 100 95 90
0.152584 1.88005 10.19 79 74 69
0.163738 1.88005 10.19 74 69 64
0.28014 1.91326 10.37 60 53 54
0 0 0 53 44 46
0 0 0 49 40 42
0 0 0 108 100 105
0.330881 1.94462 10.54 137 129 134
0.345342 1.96123 10.63 147 143 143
0.358321 1.96861 10.67 150 146 146
0.370347 1.97045 10.68 110 103 104
0.382395 1.9723 10.69 85 78 79
0.394833 1.97599 10.71 129 123 121
0.407316 1.97968 10.73 145 139 137
0.419451 1.98152 10.74 144 139 134
0.431609 1.98337 10.75 135 130 125
-0.59153 1.69077 9.11 155 148 138
-0.582197 1.69262 9.12 168 161 151
-0.573469 1.69633 9.14 162 155 145
-0.564697 1.70005 9.16 164 157 147
-0.555882 1.70376 9.18 165 158 148
-0.547022 1.70747 9.2 167 160 150
-0.538119 1.71118 9.22 170 163 153
-0.529173 1.71489 9.24 171 165 153
-0.51962 1.71675 9.25 174 168 156
-0.510597 1.72046 9.27 181 172 161
-0.50099 1.72232 9.28 190 181 170
-0.492419 1.72789 9.31 198 189 178
-0.4843 1.73531 9.35 199 190 179
-0.477107 1.74645 9.41 196 190 178
-0 0 0 199 193 181
-0 0 0 191 185 173
-0.468019 1.83182 9.87 190 184 172
-0.461848 1.85038 9.97 195 189 177
-0.454101 1.86337 10.04 188 182 170
-0.443111 1.86337 10.04 185 179 167
-0.432552 1.86523 10.05 191 185 173
-0.42197 1.86708 10.06 202 196 184
-0.411367 1.86894 10.07 196 190 178
-0.400742 1.87079 10.08 189 182 172
-0.389708 1.87079 10.08 185 178 168
-0.378675 1.87079 10.08 183 176 166
-0.366912 1.86708 10.06 171 164 154
-0.355546 1.86523 10.05 174 167 157
-0.344203 1.86337 10.04 177 170 160
-0.332881 1.86151 10.03 170 162 155
-0.321902 1.86151 10.03 170 162 155
-0.310614 1.85966 10.02 170 162 155
-0.299646 1.85966 10.02 169 161 154
-0.28839 1.8578 10.01 166 160 153
-0.277433 1.8578 10.01 168 162 155
-0.267274 1.86337 10.04 168 162 155
-0.257306 1.87079 10.08 166 160 153
-0.246516 1.87265 10.09 167 161 154
-0.235939 1.87636 10.11 167 161 154
-0.224872 1.87636 10.11 161 155 148
-0.213806 1.87636 10.11 160 154 147
-0 0 0 161 157 150
-0.191863 1.87822 10.12 171 167 160
-0.180964 1.88007 10.13 168 167 159
-0.168869 1.86894 10.07 171 170 162
-0.157847 1.86894 10.07 181 177 170
-0.146678 1.86708 10.06 185 181 174
-0.135667 1.86708 10.06 173 169 162
-0.124407 1.86337 10.04 177 173 166
-0.114434 1.88007 10.13 177 173 166
-0.10355 1.88379 10.15 180 176 169
-0.0936235 1.90791 10.28 177 173 166
-0 0 0 171 167 160
-0.0716028 1.9209 10.35 171 170 162
-0.0605067 1.92833 10.39 171 170 162
-0.0491811 1.93018 10.4 170 169 161
-0.0378699 1.9339 10.42 170 169 161
-0.0264642 1.9339 10.42 173 169 162
-0.0150295 1.93018 10.4 166 162 155
-0.00363518 1.92462 10.37 166 162 155
0.00770839 1.92276 10.36 166 162 155
0.0190301 1.9209 10.35 164 160 153
0.0303005 1.91719 10.33 163 159 152
0.0415272 1.91348 10.31 163 159 152
0 0 0 161 157 150
0.063787 1.9042 10.26 160 156 149
0.0749445 1.90235 10.25 159 155 148
0.08608 1.90049 10.24 159 155 148
0.0970987 1.89678 10.22 155 151 144
0.10818 1.89492 10.21 150 146 139
0.119122 1.89121 10.19 149 145 138
0.130148 1.88935 10.18 150 145 140
0.141291 1.88935 10.18 116 111 106
0.152434 1.88935 10.18 74 66 64
0 0 0 63 53 58
0 0 0 86 77 84
0.329939 1.9506 10.51 125 116 123
0.344042 1.96545 10.59 135 131 131
0.357985 1.97844 10.66 144 140 140
0 0 0 143 139 139
0 0 0 130 126 126
0 0 0 148 145 142
0 0 0 151 148 145
0 0 0 160 155 150
0 0 0 130 125 120
-0.59153 1.70075 9.11 153 146 136
-0.582835 1.70448 9.13 169 162 152
-0.574096 1.70821 9.15 163 156 146
-0.565314 1.71195 9.17 162 155 145
-0.556487 1.71568 9.19 164 157 147
-0.547617 1.71941 9.21 167 160 150
-0.539287 1.72502 9.24 169 162 152
-0.529745 1.72688 9.25 168 161 151
-0.520182 1.72875 9.26 172 165 155
-0.511148 1.73248 9.28 179 170 159
-0.50153 1.73435 9.29 193 184 173
-0.494005 1.74368 9.34 200 191 180
-0.488443 1.76049 9.43 201 192 181
-0.483192 1.77916 9.53 203 197 185
-0 0 0 190 184 172
-0 0 0 185 179 167
-0 0 0 181 175 163
-0.459068 1.8501 9.91 175 169 157
-0.452744 1.86877 10.01 181 175 163
-0.441787 1.86877 10.01 186 180 168
-0.43126 1.87063 10.02 188 182 170
-0.420712 1.8725 10.03 189 183 171
-0.409733 1.8725 10.03 202 196 184
-0.398754 1.8725 10.03 192 185 175
-0.388162 1.87437 10.04 184 177 167
-0.377172 1.87437 10.04 181 174 164
-0.365818 1.8725 10.03 177 170 160
-0.354839 1.8725 10.03 177 170 160
-0.343174 1.86877 10.01 177 170 160
-0.332217 1.86877 10.01 176 169 159
-0.320619 1.86503 9.99 177 170 160
-0.309374 1.86317 9.98 178 171 161
-0.298449 1.86317 9.98 178 171 161
-0.287525 1.86317 9.98 174 167 157
-0.276601 1.86317 9.98 178 171 161
-0.265677 1.86317 9.98 186 179 169
-0.255264 1.8669 10 188 181 171
-0.244562 1.86877 10.01 182 177 167
-0.233838 1.87063 10.02 172 167 157
-0.223093 1.8725 10.03 174 169 159
-0.212114 1.8725 10.03 175 170 160
-0.201135 1.8725 10.03 179 174 164
-0.190346 1.87437 10.04 179 174 164
-0.179356 1.87437 10.04 180 175 165
-0.168199 1.8725 10.03 177 172 162
-0.15722 1.8725 10.03 175 170 160
-0.146241 1.8725 10.03 174 169 159
-0.135397 1.87437 10.04 181 176 166
-0.124407 1.87437 10.04 190 185 175
-0.113869 1.88184 10.08 176 171 161
-0.103142 1.88744 10.11 175 170 160
-0.0924396 1.8949 10.15 175 170 160
-0.08173 1.90424 10.2 174 169 159
-0 0 0 174 169 159
-0 0 0 170 165 155
-0 0 0 164 161 151
-0.0375065 1.92664 10.32 172 169 159
-0.0262102 1.92664 10.32 170 167 157
-0 0 0 161 158 148
-0 0 0 166 160 153
0 0 0 168 162 155
0.018883 1.91731 10.27 166 160 153
0.0300952 1.91544 10.26 165 159 152
0.0412452 1.91171 10.24 163 157 150
0.0523515 1.90797 10.22 162 156 149
0.0634761 1.9061 10.21 162 156 149
0.0745789 1.90424 10.2 160 154 147
0.0857438 1.90424 10.2 158 154 147
0.0968137 1.90237 10.19 152 148 141
0.107862 1.9005 10.18 150 149 141
0.118888 1.89864 10.17 154 153 145
0.129892 1.89677 10.16 155 152 149
0.141152 1.89864 10.17 136 133 130
0.152134 1.89677 10.16 72 65 66
0 0 0 70 61 68
0.328997 1.95651 10.48 108 99 106
0.343068 1.97145 10.56 139 135 136
0.357313 1.98638 10.64 129 125 126
0 0 0 135 131 131
0 0 0 141 137 137
0 0 0 135 133 127
0 0 0 143 141 135
0 0 0 163 158 153
0 0 0 149 144 139
-0.592829 1.71448 9.13 157 150 140
-0.583474 1.71636 9.14 165 158 148
-0.574724 1.72011 9.16 162 155 145
-0.566547 1.72575 9.19 163 156 146
-0.557698 1.7295 9.21 164 157 147
-0.548806 1.73326 9.23 165 158 148
-0.53987 1.73701 9.25 167 160 150
-0.530891 1.74077 9.27 168 161 151
-0.521306 1.74265 9.28 169 162 152
-0.512249 1.7464 9.3 169 163 151
-0.503689 1.75204 9.33 171 165 153
-0.496121 1.76143 9.38 181 175 163
-0.489997 1.77645 9.46 190 184 172
-0.484713 1.79523 9.56 189 183 171
-0 0 0 183 177 165
-0 0 0 191 185 173
-0.466122 1.84593 9.83 182 176 164
-0.459068 1.86095 9.91 175 169 157
-0.451387 1.8741 9.98 179 173 161
-0.440904 1.87598 9.99 179 173 161
-0.4304 1.87785 10 171 165 153
-0.419873 1.87973 10.01 160 154 142
-0.408916 1.87973 10.01 181 175 163
-0.397959 1.87973 10.01 183 177 165
-0.387002 1.87973 10.01 179 173 161
-0.376045 1.87973 10.01 178 172 160
-0.365088 1.87973 10.01 178 172 160
-0.354131 1.87973 10.01 177 170 160
-0.342489 1.87598 9.99 176 169 159
-0.331222 1.8741 9.98 175 168 158
-0.319977 1.87222 9.97 176 169 159
-0.309064 1.87222 9.97 177 170 160
-0.297851 1.87034 9.96 176 169 159
-0.286661 1.86846 9.95 175 168 158
-0.276047 1.87034 9.96 176 169 159
-0.265145 1.87034 9.96 177 170 160
-0.254242 1.87034 9.96 178 171 161
-0.24334 1.87034 9.96 177 170 160
-0.232671 1.87222 9.97 176 169 159
-0.221981 1.8741 9.98 175 168 158
-0.211057 1.8741 9.98 176 169 159
-0.200132 1.8741 9.98 175 170 160
-0.189208 1.8741 9.98 176 171 161
-0.178284 1.8741 9.98 176 171 161
-0.16736 1.8741 9.98 175 170 160
-0.156436 1.8741 9.98 173 168 158
-0.145366 1.87222 9.97 162 157 147
-0.134588 1.8741 9.98 179 172 162
-0.123788 1.87598 9.99 181 174 164
-0.113304 1.88349 10.03 173 168 158
-0.102632 1.88912 10.06 174 169 159
-0.0918932 1.89475 10.09 174 169 159
-0.0812493 1.90414 10.14 175 170 160
-0.0703576 1.90978 10.17 174 169 159
-0.0594002 1.91541 10.2 169 164 154
-0.0483299 1.91917 10.22 169 164 154
-0.0372157 1.92292 10.24 174 169 159
-0.026007 1.92292 10.24 172 167 157
-0.0147839 1.92104 10.23 166 161 151
-0.00357909 1.91729 10.21 166 161 151
0.00758934 1.91541 10.2 169 164 154
0.0187359 1.91353 10.19 168 163 153
0.0298605 1.91166 10.18 165 160 150
0.0409633 1.90978 10.17 163 156 146
0.0520441 1.9079 10.16 163 156 146
0.0631653 1.9079 10.16 162 157 147
0.0742864 1.9079 10.16 161 156 146
0.0853235 1.90602 10.15 160 155 145
0.0964337 1.90602 10.15 160 155 145
0.107544 1.90602 10.15 147 146 138
0.118654 1.90602 10.15 146 145 137
0.129764 1.90602 10.15 149 147 147
0.141013 1.9079 10.16 146 144 144
0.152134 1.9079 10.16 100 93 95
0.327741 1.96048 10.44 106 97 104
0.341443 1.97362 10.51 141 137 138
0 0 0 125 121 122
0 0 0 125 121 121
0 0 0 134 130 130
0 0 0 135 133 127
0 0 0 146 144 138
0 0 0 158 156 150
0 0 0 161 159 153
-0.592829 1.72448 9.13 153 145 138
-0.584112 1.72826 9.15 159 152 142
-0.575351 1.73204 9.17 161 154 144
-0.567163 1.7377 9.2 161 154 144
-0.558909 1.74337 9.23 163 156 146
-0.549995 1.74715 9.25 163 156 146
-0.540454 1.74904 9.26 164 157 147
-0.532036 1.7547 9.29 163 156 146
-0.522991 1.75848 9.31 163 156 146
-0.513902 1.76226 9.33 167 161 149
-0.505848 1.76981 9.37 163 157 145
-0.498766 1.78115 9.43 176 170 158
-0.492587 1.79626 9.51 178 172 160
-0.486741 1.81325 9.6 176 167 156
-0 0 0 176 167 156
-0.473486 1.84348 9.76 177 167 158
-0.466597 1.85859 9.84 179 169 160
-0.459068 1.87181 9.91 177 168 157
-0.451387 1.88503 9.98 177 168 157
-0.440463 1.88503 9.98 170 164 152
-0.429539 1.88503 9.98 170 164 152
-0.419034 1.88692 9.99 168 162 150
-0.408099 1.88692 9.99 164 158 146
-0.397164 1.88692 9.99 170 164 152
-0.386229 1.88692 9.99 183 177 165
-0.375294 1.88692 9.99 183 177 165
-0.364359 1.88692 9.99 182 176 164
-0.353424 1.88692 9.99 179 172 162
-0.342146 1.88503 9.98 175 168 158
-0.33089 1.88314 9.97 172 165 155
-0.319656 1.88125 9.96 178 171 161
-0.308444 1.87936 9.95 176 169 159
-0.297253 1.87747 9.94 176 169 159
-0.286373 1.87747 9.94 176 169 159
-0.275493 1.87747 9.94 175 168 158
-0.264612 1.87747 9.94 176 169 159
-0.253732 1.87747 9.94 176 169 159
-0.242852 1.87747 9.94 176 169 159
-0.232205 1.87936 9.95 176 169 159
-0.221536 1.88125 9.96 176 169 159
-0.210634 1.88125 9.96 177 170 160
-0.199731 1.88125 9.96 177 170 160
-0.189019 1.88314 9.97 177 170 160
-0.178106 1.88314 9.97 177 170 160
-0.167025 1.88125 9.96 177 170 160
-0.156123 1.88125 9.96 175 168 158
-0.145366 1.88314 9.97 177 170 160
-0.134453 1.88314 9.97 175 168 158
-0.123664 1.88503 9.98 174 167 157
-0.112853 1.88692 9.99 175 168 158
-0.102122 1.8907 10.01 176 169 159
-0.0914378 1.89636 10.04 176 169 159
-0.0806884 1.90203 10.07 175 168 158
-0.0698041 1.90581 10.09 174 167 157
-0.0589343 1.91147 10.12 171 164 154
-0.0479515 1.91525 10.14 172 165 155
-0.0368886 1.91714 10.15 176 169 159
-0.0257784 1.91714 10.15 174 167 157
-0.0146682 1.91714 10.15 170 163 153
-0.00355455 1.91525 10.14 170 163 153
0.00753726 1.91336 10.13 171 164 154
0.0186072 1.91147 10.12 169 162 152
0.0296845 1.91147 10.12 168 161 151
0.0407216 1.90958 10.11 164 157 147
0.051788 1.90958 10.11 163 156 146
0.0628544 1.90958 10.11 162 155 145
0.0739939 1.91147 10.12 162 155 145
0.0851554 1.91336 10.13 159 154 144
0.0962437 1.91336 10.13 161 156 146
0.107332 1.91336 10.13 146 145 137
0.118537 1.91525 10.14 140 139 131
0.129764 1.91714 10.15 141 139 139
0.140874 1.91714 10.15 149 147 147
0.152134 1.91903 10.16 126 121 125
0 0 0 96 87 94
0 0 0 139 135 136
0 0 0 127 123 124
0 0 0 133 129 130
0 0 0 133 129 130
0 0 0 134 132 126
0 0 0 148 146 140
0 0 0 153 151 145
0 0 0 164 162 156
-0.592829 1.73448 9.13 154 146 139
-0.58475 1.74018 9.16 159 152 142
-0.575979 1.74398 9.18 161 154 144
-0.56778 1.74968 9.21 161 154 144
-0.559515 1.75538 9.24 161 154 144
-0.55059 1.75918 9.26 161 154 144
-0.541621 1.76298 9.28 162 155 145
-0.533181 1.76868 9.31 162 155 145
-0.524114 1.77248 9.33 164 157 147
-0.515554 1.77818 9.36 165 158 148
-0.507468 1.78578 9.4 168 161 151
-0.500352 1.79717 9.46 174 168 156
-0.494659 1.81427 9.55 170 164 152
-0.488262 1.82947 9.63 168 161 151
-0 0 0 171 164 154
-0.474942 1.85987 9.79 172 165 155
-0.467071 1.87126 9.85 174 167 157
-0.459068 1.88266 9.91 169 163 151
-0.450482 1.89216 9.96 171 165 153
-0.43958 1.89216 9.96 171 165 153
-0.428678 1.89216 9.96 171 165 153
-0.418195 1.89406 9.97 171 165 153
-0.407282 1.89406 9.97 164 158 146
-0.396766 1.89596 9.98 162 156 144
-0.385842 1.89596 9.98 169 163 151
-0.374543 1.89406 9.97 170 164 152
-0.363629 1.89406 9.97 181 175 163
-0.352716 1.89406 9.97 179 173 161
-0.34146 1.89216 9.96 175 169 157
-0.330558 1.89216 9.96 165 159 147
-0.319656 1.89216 9.96 175 169 157
-0.308444 1.89026 9.95 175 169 157
-0.297253 1.88836 9.94 174 168 156
-0.286373 1.88836 9.94 174 168 156
-0.275493 1.88836 9.94 175 169 157
-0.264612 1.88836 9.94 175 169 157
-0.253732 1.88836 9.94 175 169 157
-0.242852 1.88836 9.94 176 170 158
-0.231971 1.88836 9.94 177 171 159
-0.221091 1.88836 9.94 177 171 159
-0.210422 1.89026 9.95 175 169 157
-0.199731 1.89216 9.96 175 169 157
-0.188829 1.89216 9.96 174 168 156
-0.177927 1.89216 9.96 175 169 157
-0.167025 1.89216 9.96 177 171 159
-0.156123 1.89216 9.96 177 171 159
-0.14522 1.89216 9.96 178 172 160
-0.134318 1.89216 9.96 176 170 158
-0.12354 1.89406 9.97 175 169 157
-0.11274 1.89596 9.98 175 169 157
-0.101917 1.89786 9.99 171 165 153
-0.0911646 1.90166 10.01 165 159 147
-0.0803679 1.90546 10.03 167 161 149
-0.0694582 1.90736 10.04 169 162 152
-0.0585267 1.90926 10.05 172 165 155
-0.0475732 1.91116 10.06 175 168 158
-0.0365979 1.91306 10.07 175 168 158
-0.0256007 1.91496 10.08 174 167 157
-0.0145671 1.91496 10.08 170 163 153
-0.00353352 1.91496 10.08 168 161 151
0.00748517 1.91116 10.06 167 160 150
0.0184969 1.91116 10.06 168 161 151
0.0295085 1.91116 10.06 167 160 150
0.0405202 1.91116 10.06 167 160 150
0.0515319 1.91116 10.06 164 157 147
0.0626679 1.91496 10.08 163 156 146
0.0737015 1.91496 10.08 162 155 145
0.0848191 1.91686 10.09 157 152 142
0.0960536 1.92066 10.11 155 150 140
0.10712 1.92066 10.11 150 149 141
0.11842 1.92446 10.13 146 145 137
0.129509 1.92446 10.13 146 142 142
0.140874 1.92826 10.15 142 138 138
0.152134 1.93016 10.16 135 130 134
0.163095 1.92826 10.15 68 63 67
0 0 0 80 72 77
0 0 0 137 133 134
0 0 0 125 121 122
0 0 0 130 126 127
0 0 0 134 130 131
0 0 0 136 133 130
0 0 0 144 141 138
0 0 0 148 146 140
0 0 0 162 160 154
0 0 0 126 122 122
-0.592829 1.74448 9.13 157 149 142
-0.584112 1.7483 9.15 157 149 142
-0.575979 1.75404 9.18 161 153 146
-0.56778 1.75977 9.21 161 154 144
-0.559515 1.7655 9.24 160 153 143
-0.551185 1.77123 9.27 161 154 144
-0.542205 1.77505 9.29 162 155 145
-0.533754 1.78079 9.32 163 156 146
-0.525238 1.78652 9.35 164 157 147
-0.517206 1.79416 9.39 163 156 146
-0.509627 1.80371 9.44 161 154 144
-0.502997 1.81709 9.51 168 161 151
-0.496731 1.83238 9.59 169 162 152
-0.490797 1.84957 9.68 169 162 152
-0.48417 1.86486 9.76 170 163 153
-0.476397 1.87632 9.82 171 164 154
-0.468019 1.88588 9.87 171 164 154
-0.458605 1.89161 9.9 169 162 152
-0.449578 1.89925 9.94 169 162 152
-0.439139 1.90116 9.95 170 164 152
-0.427817 1.89925 9.94 171 165 153
-0.417356 1.90116 9.95 171 165 153
-0.406465 1.90116 9.95 167 161 149
-0.395971 1.90307 9.96 163 157 145
-0.385069 1.90307 9.96 156 150 138
-0.374167 1.90307 9.96 155 149 137
-0.363265 1.90307 9.96 177 171 159
-0.352362 1.90307 9.96 175 169 157
-0.341117 1.90116 9.95 174 168 156
-0.330226 1.90116 9.95 170 163 153
-0.319014 1.89925 9.94 172 165 155
-0.308134 1.89925 9.94 174 167 157
-0.297253 1.89925 9.94 174 167 157
-0.286373 1.89925 9.94 174 167 157
-0.275215 1.89734 9.93 174 167 157
-0.264346 1.89734 9.93 174 167 157
-0.253477 1.89734 9.93 174 167 157
-0.242607 1.89734 9.93 174 167 157
-0.231738 1.89734 9.93 176 169 159
-0.221091 1.89925 9.94 177 170 160
-0.210211 1.89925 9.94 176 169 159
-0.19933 1.89925 9.94 175 168 158
-0.18864 1.90116 9.95 174 167 157
-0.177748 1.90116 9.95 176 169 159
-0.167025 1.90307 9.96 181 174 164
-0.156123 1.90307 9.96 178 171 161
-0.14522 1.90307 9.96 178 171 161
-0.134318 1.90307 9.96 176 169 159
-0.12354 1.90498 9.97 176 169 159
-0.112627 1.90498 9.97 174 167 157
-0.101815 1.90689 9.98 171 164 154
-0.0909824 1.9088 9.99 173 163 154
-0.0801275 1.91071 10 172 162 153
-0.0692507 1.91263 10.01 172 162 153
-0.0582937 1.91263 10.01 173 163 154
-0.0473841 1.91454 10.02 172 165 155
-0.0364162 1.91454 10.02 170 163 153
-0.0254737 1.91645 10.03 165 158 148
-0.0144948 1.91645 10.03 170 163 153
-0.00351599 1.91645 10.03 165 158 148
0.00746285 1.91645 10.03 165 158 148
0.0184601 1.91836 10.04 164 156 149
0.0294499 1.91836 10.04 165 157 150
0.0403994 1.91645 10.03 165 157 150
0.0514807 1.92027 10.05 164 156 149
0.0625436 1.92218 10.06 162 154 147
0.0736284 1.92409 10.07 159 151 144
0.0847351 1.926 10.08 154 148 141
0.0958636 1.92791 10.09 153 147 140
0.10712 1.93173 10.11 151 146 141
0.118186 1.93173 10.11 151 146 141
0.129509 1.93555 10.13 147 143 143
0.140597 1.93555 10.13 125 121 121
0.151985 1.93938 10.15 130 126 127
0.163095 1.93938 10.15 85 81 82
0 0 0 66 58 63
0 0 0 135 131 132
0 0 0 128 124 125
0 0 0 128 124 125
0 0 0 133 129 130
0 0 0 148 145 142
0 0 0 149 146 143
0 0 0 148 145 142
0 0 0 158 155 152
0 0 0 142 138 138
-0.592829 1.75448 9.13 160 152 145
-0.584112 1.75833 9.15 157 149 142
-0.575979 1.76409 9.18 153 145 138
-0.56778 1.76986 9.21 157 149 142
-0.559515 1.77562 9.24 160 152 145
-0.551185 1.78139 9.27 160 153 143
-0.542205 1.78523 9.29 161 154 144
-0.533754 1.79099 9.32 162 155 145
-0.5258 1.79868 9.36 163 156 146
-0.518308 1.80829 9.41 162 155 145
-0 0 0 162 155 145
-0.505112 1.83519 9.55 168 162 150
-0 0 0 167 161 149
-0.492825 1.86786 9.72 165 158 148
-0.48665 1.88516 9.81 168 161 151
-0.477368 1.89092 9.84 171 164 154
-0.468493 1.89861 9.88 169 162 152
-0.459068 1.90437 9.91 169 162 152
-0.449578 1.91014 9.94 169 162 152
-0.438698 1.91014 9.94 171 164 154
-0.427817 1.91014 9.94 172 165 155
-0.416937 1.91014 9.94 172 166 154
-0.406057 1.91014 9.94 163 157 145
-0.395176 1.91014 9.94 163 157 145
-0.384296 1.91014 9.94 162 156 144
-0.373416 1.91014 9.94 161 155 143
-0.362535 1.91014 9.94 168 162 150
-0.351655 1.91014 9.94 172 166 154
-0.340775 1.91014 9.94 176 170 158
-0.329894 1.91014 9.94 176 170 158
-0.319014 1.91014 9.94 175 169 157
-0.308134 1.91014 9.94 172 166 154
-0.297253 1.91014 9.94 172 166 154
-0.286373 1.91014 9.94 174 168 156
-0.275215 1.90822 9.93 172 166 154
-0.264346 1.90822 9.93 172 166 154
-0.253477 1.90822 9.93 175 169 157
-0.242607 1.90822 9.93 176 170 158
-0.231738 1.90822 9.93 176 170 158
-0.220869 1.90822 9.93 177 171 159
-0.210211 1.91014 9.94 177 171 159
-0.19933 1.91014 9.94 178 172 160
-0.18845 1.91014 9.94 181 175 163
-0.17757 1.91014 9.94 183 177 165
-0.166857 1.91206 9.95 189 183 171
-0.156123 1.91398 9.96 178 172 160
-0.14522 1.91398 9.96 177 171 159
-0.134318 1.91398 9.96 177 171 159
-0.12354 1.9159 9.97 176 170 158
-0.11274 1.91782 9.98 175 169 157
-0.101815 1.91782 9.98 172 166 154
-0.0909824 1.91975 9.99 173 164 153
-0.0800474 1.91975 9.99 173 164 153
-0.0691815 1.92167 10 173 163 154
-0.0582937 1.92359 10.01 173 163 154
-0.0473368 1.92359 10.01 172 162 153
-0.0363798 1.92359 10.01 172 162 153
-0.0254229 1.92359 10.01 165 158 148
-0.0144659 1.92359 10.01 169 162 152
-0.00351248 1.92551 10.02 168 160 153
0.00745541 1.92551 10.02 165 157 150
0.0184233 1.92551 10.02 165 157 150
0.0294205 1.92743 10.03 164 156 149
0.0403994 1.92743 10.03 164 156 149
0.0514294 1.92936 10.04 165 157 150
0.0624814 1.93128 10.05 159 151 144
0.0735552 1.9332 10.06 159 151 144
0.084651 1.93512 10.07 154 148 141
0.0957686 1.93704 10.08 154 148 141
0.106908 1.93896 10.09 151 146 141
0.118186 1.94281 10.11 149 144 139
0.129253 1.94281 10.11 146 142 142
0.140597 1.94665 10.13 147 143 143
0.151835 1.94857 10.14 153 146 148
0.162934 1.94857 10.14 106 99 101
0 0 0 136 132 133
0 0 0 130 126 127
0 0 0 127 123 123
0 0 0 129 125 125
0 0 0 138 137 134
0 0 0 147 146 143
0 0 0 146 145 142
0 0 0 157 156 153
0 0 0 148 144 144
-0.59218 1.76255 9.12 159 151 144
-0.583474 1.76642 9.14 157 149 142
-0.575351 1.77221 9.17 156 148 141
-0.567163 1.77801 9.2 156 148 141
-0.559515 1.78574 9.24 159 151 144
-0.551185 1.79154 9.27 159 152 142
-0.541621 1.79347 9.28 160 153 143
-0.533754 1.8012 9.32 161 154 144
-0.526361 1.81087 9.37 161 154 144
-0.51941 1.82246 9.43 160 153 143
-0 0 0 162 155 145
-0.506699 1.85145 9.58 164 157 147
-0.500357 1.86691 9.66 165 158 148
-0.494346 1.88431 9.75 165 158 148
-0.488138 1.9017 9.84 169 162 152
-0.478823 1.9075 9.87 170 163 153
-0.468968 1.91136 9.89 169 162 152
-0.459068 1.91523 9.91 169 162 152
-0.449126 1.91909 9.93 169 162 152
-0.438256 1.91909 9.93 170 164 152
-0.427387 1.91909 9.93 171 165 153
-0.416937 1.92103 9.94 172 166 154
-0.406057 1.92103 9.94 164 158 146
-0.395176 1.92103 9.94 162 156 144
-0.384296 1.92103 9.94 162 156 144
-0.373416 1.92103 9.94 163 157 145
-0.362535 1.92103 9.94 165 159 147
-0.351655 1.92103 9.94 169 163 151
-0.340775 1.92103 9.94 176 170 158
-0.329894 1.92103 9.94 174 168 156
-0.319014 1.92103 9.94 175 169 157
-0.308134 1.92103 9.94 171 165 153
-0.297253 1.92103 9.94 172 166 154
-0.286373 1.92103 9.94 174 168 156
-0.275215 1.91909 9.93 174 168 156
-0.264346 1.91909 9.93 175 169 157
-0.253477 1.91909 9.93 176 170 158
-0.242363 1.91716 9.92 176 170 158
-0.231505 1.91716 9.92 176 170 158
-0.220869 1.91909 9.93 176 170 158
-0.209999 1.91909 9.93 176 170 158
-0.19913 1.91909 9.93 186 180 168
-0.18826 1.91909 9.93 191 185 173
-0.17757 1.92103 9.94 185 179 167
-0.166689 1.92103 9.94 186 180 168
-0.155966 1.92296 9.95 179 173 161
-0.145074 1.92296 9.95 178 172 160
-0.134318 1.92489 9.96 177 171 159
-0.12354 1.92682 9.97 177 171 159
-0.112627 1.92682 9.97 178 172 160
-0.101815 1.92876 9.98 174 168 156
-0.0908914 1.92876 9.98 171 165 153
-0.0800474 1.93069 9.99 171 165 153
-0.0691123 1.93069 9.99 169 159 150
-0.0581773 1.93069 9.99 169 159 150
-0.0472895 1.93262 10 170 160 151
-0.0363435 1.93262 10 171 161 152
-0.0253975 1.93262 10 170 160 151
-0.0144515 1.93262 10 171 161 152
-0.00350898 1.93455 10.01 169 162 152
0.00744797 1.93455 10.01 165 158 148
0.0184049 1.93455 10.01 164 157 147
0.0293912 1.93649 10.02 164 157 147
0.0403591 1.93649 10.02 163 155 148
0.0513782 1.93842 10.03 165 157 150
0.0624192 1.94035 10.04 160 152 145
0.0734821 1.94229 10.05 160 152 145
0.0845669 1.94422 10.06 157 150 145
0.0956736 1.94615 10.07 154 147 142
0.106802 1.94808 10.08 149 144 139
0.117953 1.95002 10.09 149 144 139
0.129125 1.95195 10.1 148 142 140
0.140319 1.95388 10.11 148 142 140
0.151685 1.95775 10.13 158 151 152
0.162773 1.95775 10.13 114 107 108
0 0 0 135 131 132
0 0 0 133 129 130
0 0 0 127 123 123
0 0 0 128 124 124
0 0 0 127 126 123
0 0 0 146 145 142
0 0 0 145 144 141
0 0 0 155 154 151
0 0 0 151 147 147
-0.59218 1.77254 9.12 155 147 140
-0.583474 1.77643 9.14 159 151 144
-0.575351 1.78226 9.17 156 148 141
-0.567163 1.78809 9.2 156 148 141
-0.558909 1.79392 9.23 157 149 142
-0.55059 1.79975 9.26 156 148 141
-0.541621 1.80364 9.28 157 149 142
-0.533754 1.81141 9.32 157 150 140
-0.525238 1.81724 9.35 157 150 140
-0.51941 1.83279 9.43 162 155 145
-0 0 0 163 156 146
-0.508286 1.86778 9.61 163 156 146
-0.501911 1.88332 9.69 164 157 147
-0.495867 1.90082 9.78 165 158 148
-0.489627 1.91831 9.87 168 161 151
-0.479308 1.92025 9.88 169 162 152
-0.469442 1.92414 9.9 168 161 151
-0.459068 1.92608 9.91 169 162 152
-0.449126 1.92997 9.93 169 162 152
-0.438256 1.92997 9.93 169 162 152
-0.427387 1.92997 9.93 169 162 152
-0.416517 1.92997 9.93 167 161 149
-0.405648 1.92997 9.93 165 159 147
-0.394779 1.92997 9.93 162 156 144
-0.383909 1.92997 9.93 160 154 142
-0.37304 1.92997 9.93 160 154 142
-0.36217 1.92997 9.93 149 143 131
-0.351301 1.92997 9.93 157 151 139
-0.340432 1.92997 9.93 168 162 150
-0.329562 1.92997 9.93 172 166 154
-0.318693 1.92997 9.93 172 166 154
-0.308134 1.93191 9.94 171 165 153
-0.296954 1.92997 9.93 172 166 154
-0.286085 1.92997 9.93 172 166 154
-0.275215 1.92997 9.93 174 168 156
-0.264346 1.92997 9.93 175 169 157
-0.253221 1.92803 9.92 175 169 157
-0.242363 1.92803 9.92 175 169 157
-0.231505 1.92803 9.92 175 169 157
-0.220646 1.92803 9.92 175 169 157
-0.209788 1.92803 9.92 176 170 158
-0.198929 1.92803 9.92 181 175 163
-0.18826 1.92997 9.93 188 182 170
-0.177391 1.92997 9.93 190 184 172
-0.166522 1.92997 9.93 188 182 170
-0.155809 1.93191 9.94 179 173 161
-0.144929 1.93191 9.94 177 171 159
-0.134183 1.93386 9.95 176 170 158
-0.123416 1.9358 9.96 178 172 160
-0.112514 1.9358 9.96 179 172 162
-0.101713 1.93774 9.97 184 177 167
-0.0908914 1.93969 9.98 175 168 158
-0.0800474 1.94163 9.99 171 164 154
-0.0691123 1.94163 9.99 169 162 152
-0.0581773 1.94163 9.99 167 160 150
-0.0472422 1.94163 9.99 167 160 150
-0.0363071 1.94163 9.99 168 161 151
-0.0253721 1.94163 9.99 168 161 151
-0.014437 1.94163 9.99 169 162 152
-0.00350197 1.94163 9.99 168 161 151
0.00743309 1.94163 9.99 165 158 148
0.0183865 1.94358 10 167 160 150
0.0293619 1.94552 10.01 168 161 151
0.0403188 1.94552 10.01 164 157 147
0.051327 1.94746 10.02 162 155 145
0.0623571 1.94941 10.03 160 152 145
0.073409 1.95135 10.04 160 152 145
0.0844829 1.95329 10.05 154 147 142
0.0955786 1.95524 10.06 152 145 140
0.106802 1.95912 10.08 149 144 139
0.117836 1.95912 10.08 149 144 139
0.128997 1.96107 10.09 148 142 140
0.14018 1.96301 10.1 143 137 135
0.151386 1.96495 10.11 153 146 147
0.162613 1.9669 10.12 123 116 117
0 0 0 125 123 124
0 0 0 128 126 127
0 0 0 128 126 126
0 0 0 137 135 135
0 0 0 144 143 140
0 0 0 144 143 140
0 0 0 144 143 140
0 0 0 154 153 150
0 0 0 154 150 150
-0.59153 1.78058 9.11 154 146 139
-0.583474 1.78644 9.14 156 148 141
-0.574724 1.79035 9.16 156 148 141
-0.566547 1.79621 9.19 155 147 140
-0.558304 1.80208 9.22 155 147 140
-0.549995 1.80794 9.25 155 148 138
-0.541038 1.81185 9.27 156 149 139
-0.533181 1.81967 9.31 157 150 140
-0.525238 1.82748 9.35 157 150 140
-0.519961 1.84508 9.44 160 153 143
-0 0 0 163 156 146
-0.509344 1.88221 9.63 164 157 147
-0.503465 1.8998 9.72 167 160 150
-0.497388 1.91739 9.81 167 160 150
-0.491115 1.93498 9.9 168 161 151
-0.480763 1.93694 9.91 168 161 151
-0.469916 1.93694 9.91 168 161 151
-0.459995 1.94085 9.93 169 162 152
-0.449126 1.94085 9.93 169 162 152
-0.438256 1.94085 9.93 169 163 151
-0.427387 1.94085 9.93 169 163 151
-0.416517 1.94085 9.93 168 162 150
-0.405648 1.94085 9.93 165 159 147
-0.394779 1.94085 9.93 163 157 145
-0.383909 1.94085 9.93 159 153 141
-0.37304 1.94085 9.93 149 143 131
-0.36217 1.94085 9.93 148 142 130
-0.351301 1.94085 9.93 146 140 128
-0.340432 1.94085 9.93 170 164 152
-0.329562 1.94085 9.93 174 168 156
-0.318693 1.94085 9.93 170 164 152
-0.307824 1.94085 9.93 165 159 147
-0.296954 1.94085 9.93 171 165 153
-0.286085 1.94085 9.93 175 169 157
-0.275215 1.94085 9.93 174 168 156
-0.26408 1.93889 9.92 174 168 156
-0.253221 1.93889 9.92 175 169 157
-0.242119 1.93694 9.91 175 169 157
-0.231271 1.93694 9.91 175 169 157
-0.220424 1.93694 9.91 174 168 156
-0.209576 1.93694 9.91 174 168 156
-0.198729 1.93694 9.91 175 169 157
-0.188071 1.93889 9.92 177 171 159
-0.177212 1.93889 9.92 178 172 160
-0.166522 1.94085 9.93 176 170 158
-0.155652 1.94085 9.93 178 172 160
-0.144929 1.9428 9.94 176 170 158
-0.134048 1.9428 9.94 177 171 159
-0.123292 1.94476 9.95 178 172 160
-0.112401 1.94476 9.95 178 172 160
-0.101611 1.94671 9.96 185 179 167
-0.0908003 1.94867 9.97 179 172 162
-0.0799672 1.95062 9.98 169 162 152
-0.0690431 1.95062 9.98 172 162 153
-0.058119 1.95062 9.98 170 160 151
-0.0471949 1.95062 9.98 169 159 150
-0.0362708 1.95062 9.98 169 159 150
-0.0253467 1.95062 9.98 169 159 150
-0.0144226 1.95062 9.98 169 159 150
-0.00349846 1.95062 9.98 169 159 150
0.00743309 1.95257 9.99 166 156 147
0.0183681 1.95257 9.99 161 154 144
0.0293032 1.95257 9.99 165 158 148
0.0402785 1.95453 10 167 160 150
0.0512758 1.95648 10.01 161 154 144
0.0622949 1.95844 10.02 160 152 145
0.0733359 1.96039 10.03 159 151 144
0.0843988 1.96235 10.04 153 146 141
0.0954836 1.9643 10.05 152 145 140
0.10659 1.96626 10.06 149 144 139
0.117719 1.96821 10.07 149 144 139
0.128869 1.97017 10.08 148 142 140
0.140042 1.97212 10.09 141 135 133
0.151236 1.97407 10.1 137 133 133
0.162452 1.97603 10.11 130 126 126
0 0 0 66 64 65
0 0 0 131 129 130
0 0 0 128 126 127
0 0 0 125 123 123
0 0 0 128 126 126
0 0 0 139 138 135
0 0 0 144 143 140
0 0 0 144 143 140
0 0 0 154 153 150
0 0 0 155 151 151
-0.59153 1.79056 9.11 153 145 138
-0.582835 1.79449 9.13 156 148 141
-0.574096 1.79842 9.15 155 147 140
-0.56593 1.80431 9.18 154 146 139
-0.557698 1.81021 9.21 153 145 138
-0.549401 1.81611 9.24 154 147 137
-0.540454 1.82004 9.26 155 148 138
-0.532036 1.82593 9.29 156 149 139
-0.524676 1.83576 9.34 157 150 140
-0.51941 1.85345 9.43 161 154 144
-0 0 0 162 155 145
-0 0 0 163 156 146
-0.503982 1.91241 9.73 164 157 147
-0.498402 1.93207 9.83 165 158 148
-0.492107 1.94976 9.92 167 160 150
-0.481249 1.94976 9.92 167 160 150
-0.47039 1.94976 9.92 168 161 151
-0.459995 1.95172 9.93 167 161 149
-0.449126 1.95172 9.93 167 161 149
-0.438256 1.95172 9.93 169 163 151
-0.427387 1.95172 9.93 170 164 152
-0.416517 1.95172 9.93 171 165 153
-0.40524 1.94976 9.92 168 162 150
-0.394779 1.95172 9.93 172 166 154
-0.383909 1.95172 9.93 165 159 147
-0.37304 1.95172 9.93 160 154 142
-0.36217 1.95172 9.93 153 147 135
-0.351301 1.95172 9.93 143 136 126
-0.340432 1.95172 9.93 161 154 144
-0.329562 1.95172 9.93 183 174 163
-0.318693 1.95172 9.93 174 165 154
-0.307824 1.95172 9.93 173 164 153
-0.296954 1.95172 9.93 176 167 156
-0.286085 1.95172 9.93 177 168 157
-0.275215 1.95172 9.93 177 168 157
-0.264346 1.95172 9.93 174 168 156
-0.253221 1.94976 9.92 176 170 158
-0.242119 1.94779 9.91 176 170 158
-0.231271 1.94779 9.91 175 169 157
-0.220424 1.94779 9.91 175 169 157
-0.209576 1.94779 9.91 175 169 157
-0.198729 1.94779 9.91 175 169 157
-0.187881 1.94779 9.91 177 171 159
-0.177034 1.94779 9.91 177 171 159
-0.166186 1.94779 9.91 170 164 152
-0.155496 1.94976 9.92 175 169 157
-0.144783 1.95172 9.93 176 170 158
-0.133914 1.95172 9.93 177 171 159
-0.123168 1.95369 9.94 178 172 160
-0.112288 1.95369 9.94 185 178 168
-0.101509 1.95566 9.95 191 184 174
-0.0906181 1.95566 9.95 190 180 171
-0.079807 1.95762 9.96 170 160 151
-0.0689048 1.95762 9.96 172 162 153
-0.0580025 1.95762 9.96 170 160 151
-0.0471003 1.95762 9.96 168 161 151
-0.0361981 1.95762 9.96 164 157 147
-0.0253213 1.95959 9.97 169 163 151
-0.0144081 1.95959 9.97 174 168 156
-0.00349496 1.95959 9.97 167 161 149
0.00742565 1.96155 9.98 163 157 145
0.0183498 1.96155 9.98 162 155 145
0.0293032 1.96352 9.99 162 155 145
0.0402383 1.96352 9.99 162 155 145
0.0512245 1.96548 10 160 153 143
0.0622327 1.96745 10.01 159 152 142
0.0732628 1.96941 10.02 159 152 142
0.0843147 1.97138 10.03 155 149 142
0.0953886 1.97334 10.04 152 146 139
0.106484 1.97531 10.05 151 144 139
0.117602 1.97728 10.06 150 143 138
0.128741 1.97924 10.07 146 143 140
0.139903 1.98121 10.08 140 137 134
0.151086 1.98317 10.09 137 133 133
0.162291 1.98514 10.1 149 145 145
0.173519 1.9871 10.11 87 83 83
0 0 0 65 61 62
0 0 0 136 132 133
0 0 0 132 128 129
0 0 0 126 122 122
0 0 0 127 123 123
0 0 0 145 139 137
0 0 0 153 147 145
0 0 0 147 144 141
0 0 0 157 154 151
0 0 0 154 150 150
-0.590881 1.79856 9.1 152 144 137
-0.582197 1.80251 9.12 154 146 139
-0.573469 1.80646 9.14 154 146 139
-0.565314 1.81239 9.17 153 145 138
-0.557093 1.81832 9.2 153 145 138
-0.548806 1.82425 9.23 155 147 140
-0.539287 1.82623 9.24 156 148 141
-0.531463 1.83413 9.28 150 142 135
-0.523553 1.84204 9.32 157 149 142
-0.518308 1.85983 9.41 168 161 151
-0 0 0 162 155 145
-0 0 0 162 155 145
-0 0 0 162 155 145
-0.497388 1.93888 9.81 164 157 147
-0.491611 1.95865 9.91 165 158 148
-0.481734 1.9626 9.93 168 161 151
-0.470864 1.9626 9.93 168 161 151
-0.459995 1.9626 9.93 167 161 149
-0.449126 1.9626 9.93 165 159 147
-0.438256 1.9626 9.93 167 161 149
-0.427387 1.9626 9.93 165 159 147
-0.416517 1.9626 9.93 171 165 153
-0.40524 1.96063 9.92 170 164 152
-0.394381 1.96063 9.92 172 166 154
-0.383523 1.96063 9.92 169 163 151
-0.372664 1.96063 9.92 168 161 151
-0.36217 1.9626 9.93 154 147 137
-0.351301 1.9626 9.93 140 133 123
-0.340432 1.9626 9.93 132 125 115
-0.329562 1.9626 9.93 169 158 147
-0.318372 1.96063 9.92 179 168 157
-0.307514 1.96063 9.92 176 167 156
-0.296954 1.9626 9.93 176 167 156
-0.286085 1.9626 9.93 176 167 156
-0.274938 1.96063 9.92 176 167 156
-0.26408 1.96063 9.92 174 168 156
-0.252966 1.95865 9.91 177 171 159
-0.242119 1.95865 9.91 177 171 159
-0.231271 1.95865 9.91 177 171 159
-0.220424 1.95865 9.91 178 172 160
-0.209365 1.95667 9.9 176 170 158
-0.198528 1.95667 9.9 175 169 157
-0.187692 1.95667 9.9 176 170 158
-0.176855 1.95667 9.9 177 171 159
-0.166019 1.95667 9.9 178 172 160
-0.155339 1.95865 9.91 178 169 158
-0.144491 1.95865 9.91 179 170 159
-0.133644 1.95865 9.91 178 169 158
-0.12292 1.96063 9.92 172 163 152
-0.112175 1.9626 9.93 174 164 155
-0.101305 1.9626 9.93 186 176 167
-0.0905271 1.96458 9.94 176 166 157
-0.0796467 1.96458 9.94 172 162 153
-0.0687664 1.96458 9.94 168 161 151
-0.0578861 1.96458 9.94 168 161 151
-0.0470058 1.96458 9.94 168 162 150
-0.0361254 1.96458 9.94 145 139 127
-0.0252705 1.96655 9.95 140 134 122
-0.0143937 1.96853 9.96 163 157 145
-0.00349145 1.96853 9.96 171 165 153
0.00741077 1.96853 9.96 165 159 147
0.0183314 1.97051 9.97 161 154 144
0.0292739 1.97248 9.98 159 152 142
0.040198 1.97248 9.98 156 149 139
0.0511733 1.97446 9.99 157 150 140
0.0621705 1.97644 10 156 149 139
0.0731897 1.97841 10.01 156 149 139
0.0842307 1.98039 10.02 153 147 140
0.0952936 1.98237 10.03 152 146 139
0.106378 1.98434 10.04 152 145 140
0.117485 1.98632 10.05 153 146 141
0.128614 1.9883 10.06 150 144 142
0.139764 1.99027 10.07 146 140 138
0.150936 1.99225 10.08 148 144 144
0.162131 1.99422 10.09 149 145 145
0.173347 1.9962 10.1 97 93 93
0 0 0 69 65 66
0 0 0 139 132 134
0 0 0 131 124 126
0 0 0 127 123 123
0 0 0 129 125 125
0 0 0 139 133 131
0 0 0 148 142 140
0 0 0 150 145 140
0 0 0 165 160 155
0 0 0 143 139 139
-0.590881 1.80853 9.1 152 144 137
-0.582197 1.8125 9.12 153 145 138
-0.573469 1.81647 9.14 153 145 138
-0.564697 1.82045 9.16 152 144 137
-0.556487 1.82641 9.19 152 144 137
-0.547617 1.83039 9.21 149 141 134
-0.539287 1.83635 9.24 150 142 135
-0.530318 1.84032 9.26 149 141 134
-0.521867 1.84629 9.29 146 138 131
-0.516105 1.86218 9.37 154 147 137
-0 0 0 162 155 145
-0 0 0 160 153 143
-0 0 0 160 153 143
-0.495867 1.94367 9.78 162 155 145
-0.490619 1.96553 9.89 163 156 146
-0.480763 1.9695 9.91 162 155 145
-0.470864 1.97348 9.93 163 156 146
-0.459995 1.97348 9.93 168 162 150
-0.448673 1.97149 9.92 168 162 150
-0.438256 1.97348 9.93 165 159 147
-0.427387 1.97348 9.93 165 159 147
-0.416517 1.97348 9.93 167 163 151
-0.405648 1.97348 9.93 173 169 157
-0.394381 1.97149 9.92 172 168 156
-0.383523 1.97149 9.92 174 170 158
-0.372664 1.97149 9.92 167 160 150
-0.361806 1.97149 9.92 168 161 151
-0.350947 1.97149 9.92 154 144 135
-0.340089 1.97149 9.92 143 133 124
-0.32923 1.97149 9.92 157 148 137
-0.318372 1.97149 9.92 171 162 151
-0.307514 1.97149 9.92 185 176 165
-0.296655 1.97149 9.92 177 168 157
-0.285797 1.97149 9.92 176 167 156
-0.274938 1.97149 9.92 174 165 154
-0.263814 1.9695 9.91 176 167 156
-0.252966 1.9695 9.91 177 168 157
-0.242119 1.9695 9.91 177 171 159
-0.231271 1.9695 9.91 178 172 160
-0.220201 1.96752 9.9 179 173 161
-0.209365 1.96752 9.9 177 171 159
-0.198528 1.96752 9.9 175 169 157
-0.187692 1.96752 9.9 175 169 157
-0.176855 1.96752 9.9 175 169 157
-0.166019 1.96752 9.9 177 171 159
-0.155182 1.96752 9.9 178 172 160
-0.144345 1.96752 9.9 176 170 158
-0.133509 1.96752 9.9 174 168 156
-0.122796 1.9695 9.91 171 165 153
-0.111949 1.9695 9.91 171 164 154
-0.101203 1.97149 9.92 172 165 155
-0.0903449 1.97149 9.92 162 155 145
-0.0795666 1.97348 9.93 164 157 147
-0.0686972 1.97348 9.93 167 160 150
-0.0578278 1.97348 9.93 168 161 151
-0.0469585 1.97348 9.93 169 162 152
-0.0361254 1.97547 9.94 149 142 132
-0.0252451 1.97547 9.94 129 123 111
-0.0143648 1.97547 9.94 140 134 122
-0.00348795 1.97745 9.95 166 156 147
0.00741077 1.97944 9.96 169 159 150
0.018313 1.97944 9.96 159 152 142
0.0292445 1.98143 9.97 159 152 142
0.040198 1.98342 9.98 159 152 142
0.0511221 1.98342 9.98 157 150 140
0.0621084 1.9854 9.99 156 148 141
0.0731165 1.98739 10 155 147 140
0.0841466 1.98938 10.01 152 146 139
0.0951986 1.99137 10.02 152 146 139
0.106272 1.99335 10.03 150 144 142
0.117368 1.99534 10.04 144 138 136
