ply
format ascii 1.0
comment Created by Open3D
element vertex 1515
property double x
property double y
property double z
property uchar red
property uchar green
property uchar blue
end_header
-0.867873 1.94379 9.08 60 78 76
-0.857934 1.94379 9.08 58 71 58
-0.848929 1.94593 9.09 77 90 77
-0.838979 1.94593 9.09 151 152 137
-0.82903 1.94593 9.09 164 165 150
-0.818179 1.94379 9.08 160 156 142
-0.80824 1.94379 9.08 161 157 143
-0.798301 1.94379 9.08 161 157 143
-0.788362 1.94379 9.08 161 157 143
-0.778423 1.94379 9.08 163 157 145
-0.768484 1.94379 9.08 161 155 143
-0.758545 1.94379 9.08 161 152 141
-0.748606 1.94379 9.08 157 148 137
-0.738667 1.94379 9.08 156 147 136
-0.727925 1.94165 9.07 155 146 135
-0.717997 1.94165 9.07 155 146 135
-0.708069 1.94165 9.07 156 147 136
-0.697371 1.93951 9.06 156 147 136
-0.687454 1.93951 9.06 155 146 135
-0.677537 1.93951 9.06 153 147 135
-0.668357 1.94165 9.07 153 147 135
-0.658429 1.94165 9.07 147 142 132
-0.649216 1.94379 9.08 145 140 130
-0.639981 1.94593 9.09 145 140 130
-0.631417 1.95022 9.11 147 142 132
-0.62281 1.9545 9.13 148 142 135
-0.614159 1.95878 9.15 144 138 131
-0 0 0 159 147 138
-0 0 0 160 146 136
-0 0 0 162 148 138
-0 0 0 165 151 139
-0 0 0 166 152 140
-0 0 0 166 152 140
-0 0 0 166 152 140
-0 0 0 167 153 141
-0 0 0 181 167 155
-0 0 0 157 135 121
-1.47456 1.99462 9.27 82 60 46
-1.46441 1.99462 9.27 78 46 29
-1.45426 1.99462 9.27 88 56 39
-1.44256 1.99247 9.26 99 68 49
-1.43087 1.99032 9.25 108 77 58
-1.42075 1.99032 9.25 106 84 64
-1.4091 1.98817 9.24 114 92 72
-1.39747 1.98601 9.23 110 92 73
-1.38737 1.98601 9.23 106 88 69
-1.37577 1.98386 9.22 94 79 59
-1.3642 1.98171 9.21 89 74 54
-1.35412 1.98171 9.21 89 74 54
-1.34258 1.97956 9.2 88 73 53
-1.33251 1.97956 9.2 85 72 52
-1.32244 1.97956 9.2 86 73 53
-1.31237 1.97956 9.2 88 77 57
-1.3023 1.97956 9.2 89 78 58
-1.29223 1.97956 9.2 77 70 52
-1.28216 1.97956 9.2 73 66 48
-1.27209 1.97956 9.2 74 70 51
-1.26202 1.97956 9.2 72 68 49
-1.25195 1.97956 9.2 76 72 53
-1.24187 1.97956 9.2 71 67 48
-1.2318 1.97956 9.2 63 59 40
-1.22041 1.97741 9.19 68 64 45
-1.21035 1.97741 9.19 74 70 51
-1.19898 1.97526 9.18 74 70 51
-1.18893 1.97526 9.18 72 68 49
-1.1776 1.9731 9.17 71 67 48
-1.16756 1.9731 9.17 69 64 47
-1.15626 1.97095 9.16 74 69 52
-1.14624 1.97095 9.16 82 77 60
-1.13497 1.9688 9.15 78 73 56
-1.12495 1.9688 9.15 77 71 57
-1.11494 1.9688 9.15 77 71 57
-1.10372 1.96665 9.14 75 69 55
-1.09371 1.96665 9.14 81 75 61
-1.08371 1.96665 9.14 91 85 73
-1.0737 1.96665 9.14 101 95 83
-1.0637 1.96665 9.14 99 95 83
-1.05369 1.96665 9.14 91 87 75
-1.04369 1.96665 9.14 84 84 73
-1.03481 1.9688 9.15 86 86 75
-1.0248 1.9688 9.15 86 97 96
-1.01478 1.9688 9.15 93 104 103
-1.00477 1.9688 9.15 73 88 89
-0.993664 1.96665 9.14 75 90 91
-0.983659 1.96665 9.14 88 104 107
-0.973655 1.96665 9.14 83 99 102
-0.962596 1.9645 9.13 95 111 114
-0.952602 1.9645 9.13 100 116 119
-0.941576 1.96235 9.12 110 125 131
-0.930572 1.96019 9.11 86 101 107
-0.9206 1.96019 9.11 75 90 96
-0.909628 1.95804 9.1 88 103 109
-0.898679 1.95589 9.09 95 113 118
-0.888729 1.95589 9.09 91 109 114
-0.877812 1.95374 9.08 93 113 113
-0.867873 1.95374 9.08 62 82 82
-0.857934 1.95374 9.08 56 70 60
-0.847995 1.95374 9.08 85 99 89
-0.838057 1.95374 9.08 162 163 148
-0.828118 1.95374 9.08 156 157 142
-0.818179 1.95374 9.08 158 154 140
-0.80824 1.95374 9.08 159 155 141
-0.798301 1.95374 9.08 159 155 141
-0.788362 1.95374 9.08 161 157 143
-0.778423 1.95374 9.08 165 156 143
-0.768484 1.95374 9.08 163 154 141
-0.758545 1.95374 9.08 161 152 141
-0.748606 1.95374 9.08 157 148 137
-0.738667 1.95374 9.08 155 146 135
-0.727925 1.95159 9.07 155 146 135
-0.717997 1.95159 9.07 155 146 135
-0.708069 1.95159 9.07 157 148 137
-0.697371 1.94944 9.06 157 147 138
-0.687454 1.94944 9.06 155 145 136
-0.677537 1.94944 9.06 153 146 136
-0.668357 1.95159 9.07 153 146 136
-0.658429 1.95159 9.07 151 146 136
-0.649216 1.95374 9.08 148 143 133
-0.639981 1.95589 9.09 143 139 132
-0.631417 1.96019 9.11 144 140 133
-0.62281 1.9645 9.13 146 142 135
-0.614159 1.9688 9.15 139 135 128
-0 0 0 150 144 137
-0 0 0 157 147 138
-0 0 0 159 149 140
-0 0 0 163 152 141
-0 0 0 164 153 142
-0 0 0 163 152 141
-0 0 0 163 152 141
-0 0 0 170 156 144
-0 0 0 163 149 137
-0 0 0 149 126 115
-1.47615 2.00694 9.28 84 61 50
-1.46599 2.00694 9.28 97 71 56
-1.45426 2.00478 9.27 118 92 77
-1.44256 2.00261 9.26 116 93 75
-1.43242 2.00261 9.26 112 89 71
-1.42075 2.00045 9.25 97 79 60
-1.4091 1.99829 9.24 97 79 60
-1.39747 1.99612 9.23 91 76 56
-1.38737 1.99612 9.23 81 66 46
-1.37577 1.99396 9.22 75 62 42
-1.3642 1.9918 9.21 84 71 51
-1.35412 1.9918 9.21 85 72 52
-1.34258 1.98964 9.2 89 76 56
-1.33251 1.98964 9.2 89 75 58
-1.32244 1.98964 9.2 92 78 61
-1.31237 1.98964 9.2 91 82 64
-1.3023 1.98964 9.2 88 79 61
-1.29223 1.98964 9.2 75 70 53
-1.28216 1.98964 9.2 75 70 53
-1.27209 1.98964 9.2 76 71 54
-1.26202 1.98964 9.2 72 67 50
-1.25195 1.98964 9.2 74 69 52
-1.24187 1.98964 9.2 72 67 50
-1.23047 1.98747 9.19 65 60 43
-1.22041 1.98747 9.19 67 62 45
-1.21035 1.98747 9.19 76 71 54
-1.19898 1.98531 9.18 86 81 64
-1.18893 1.98531 9.18 87 84 67
-1.1776 1.98315 9.17 87 84 67
-1.16756 1.98315 9.17 91 88 71
-1.15626 1.98099 9.16 90 87 70
-1.14624 1.98099 9.16 94 91 74
-1.13497 1.97882 9.15 89 86 69
-1.12495 1.97882 9.15 81 77 63
-1.11494 1.97882 9.15 84 80 66
-1.10372 1.97666 9.14 88 84 70
-1.09371 1.97666 9.14 88 84 70
-1.08371 1.97666 9.14 91 87 75
-1.0737 1.97666 9.14 90 86 74
-1.0637 1.97666 9.14 92 88 76
-1.05369 1.97666 9.14 88 84 72
-1.04369 1.97666 9.14 77 79 68
-1.03368 1.97666 9.14 81 83 72
-1.0248 1.97882 9.15 80 91 89
-1.01478 1.97882 9.15 58 69 67
-1.00367 1.97666 9.14 51 66 67
-0.993664 1.97666 9.14 54 69 70
-0.983659 1.97666 9.14 68 83 89
-0.973655 1.97666 9.14 62 77 83
-0.962596 1.9745 9.13 79 94 100
-0.952602 1.9745 9.13 115 130 136
-0.941576 1.97234 9.12 115 128 134
-0.930572 1.97017 9.11 61 74 80
-0.9206 1.97017 9.11 85 97 105
-0.909628 1.96801 9.1 117 129 137
-0.898679 1.96585 9.09 107 125 130
-0.888729 1.96585 9.09 99 117 122
-0.877812 1.96369 9.08 96 117 119
-0.867873 1.96369 9.08 64 85 87
-0.857934 1.96369 9.08 55 70 62
-0.847995 1.96369 9.08 96 111 103
-0.838057 1.96369 9.08 162 165 152
-0.828118 1.96369 9.08 153 156 143
-0.818179 1.96369 9.08 170 166 152
-0.80824 1.96369 9.08 163 159 145
-0.798301 1.96369 9.08 165 159 145
-0.788362 1.96369 9.08 164 158 144
-0.778423 1.96369 9.08 163 154 141
-0.768484 1.96369 9.08 162 153 140
-0.758545 1.96369 9.08 161 152 141
-0.747781 1.96152 9.07 157 148 137
-0.737853 1.96152 9.07 154 145 134
-0.727925 1.96152 9.07 155 146 135
-0.717997 1.96152 9.07 156 147 136
-0.707289 1.95936 9.06 156 147 136
-0.697371 1.95936 9.06 156 146 137
-0.687454 1.95936 9.06 155 145 136
-0.677537 1.95936 9.06 150 143 133
-0.66762 1.95936 9.06 154 147 137
-0.658429 1.96152 9.07 151 146 136
-0.649216 1.96369 9.08 148 143 133
-0.639981 1.96585 9.09 143 139 132
-0.630724 1.96801 9.1 144 140 133
-0.622128 1.97234 9.12 146 142 135
-0.613487 1.97666 9.14 143 139 132
-0 0 0 145 145 139
-0 0 0 153 147 140
-0 0 0 155 149 142
-0 0 0 157 150 140
-0 0 0 159 152 142
-0 0 0 161 151 142
-0 0 0 161 151 142
-0 0 0 171 157 147
-0 0 0 171 157 147
-0 0 0 146 125 114
-1.47615 2.0171 9.28 90 69 58
-1.46599 2.0171 9.28 108 86 72
-1.45583 2.0171 9.28 113 91 77
-1.44412 2.01493 9.27 104 84 70
-1.43242 2.01276 9.26 98 78 64
-1.42075 2.01058 9.25 92 75 60
-1.4091 2.00841 9.24 88 71 56
-1.39899 2.00841 9.24 82 65 50
-1.38737 2.00623 9.23 80 63 48
-1.37577 2.00406 9.22 79 64 49
-1.3642 2.00189 9.21 92 77 62
-1.35412 2.00189 9.21 91 78 63
-1.34258 1.99971 9.2 91 78 63
-1.33251 1.99971 9.2 91 78 63
-1.32244 1.99971 9.2 98 85 70
-1.31237 1.99971 9.2 96 88 72
-1.3023 1.99971 9.2 85 77 61
-1.29223 1.99971 9.2 75 72 55
-1.28216 1.99971 9.2 77 74 57
-1.27209 1.99971 9.2 79 76 59
-1.26202 1.99971 9.2 69 66 49
-1.25195 1.99971 9.2 69 66 49
-1.24187 1.99971 9.2 76 73 56
-1.23047 1.99754 9.19 78 73 56
-1.22041 1.99754 9.19 79 74 57
-1.21035 1.99754 9.19 79 76 59
-1.19898 1.99537 9.18 88 85 68
-1.18893 1.99537 9.18 82 79 62
-1.1776 1.99319 9.17 82 79 62
-1.16756 1.99319 9.17 81 80 63
-1.15626 1.99102 9.16 81 80 63
-1.14624 1.99102 9.16 77 75 61
-1.13497 1.98885 9.15 79 77 63
-1.12495 1.98885 9.15 78 76 62
-1.11494 1.98885 9.15 77 75 61
-1.10372 1.98667 9.14 74 72 60
-1.09371 1.98667 9.14 70 68 56
-1.08371 1.98667 9.14 61 62 49
-1.0737 1.98667 9.14 56 57 44
-1.0637 1.98667 9.14 57 59 48
-1.05369 1.98667 9.14 57 59 48
-1.04369 1.98667 9.14 52 59 50
-1.03368 1.98667 9.14 56 63 54
-1.02368 1.98667 9.14 81 92 90
-1.01367 1.98667 9.14 59 70 68
-1.00367 1.98667 9.14 52 67 68
-0.993664 1.98667 9.14 51 66 67
-0.983659 1.98667 9.14 42 57 63
-0.972589 1.9845 9.13 60 75 81
-0.962596 1.9845 9.13 56 71 77
-0.951559 1.98233 9.12 116 131 137
-0.941576 1.98233 9.12 78 91 97
-0.930572 1.98015 9.11 66 79 85
-0.919589 1.97798 9.1 70 82 90
-0.908629 1.9758 9.09 96 108 116
-0.898679 1.9758 9.09 101 119 124
-0.888729 1.9758 9.09 95 113 118
-0.877812 1.97363 9.08 92 113 115
-0.867873 1.97363 9.08 67 88 90
-0.857934 1.97363 9.08 57 71 66
-0.847995 1.97363 9.08 110 124 119
-0.838057 1.97363 9.08 163 166 153
-0.828118 1.97363 9.08 154 157 144
-0.818179 1.97363 9.08 162 158 144
-0.80824 1.97363 9.08 161 157 143
-0.798301 1.97363 9.08 164 155 142
-0.78923 1.9758 9.09 164 155 142
-0.778423 1.97363 9.08 162 153 140
-0.768484 1.97363 9.08 159 150 137
-0.758545 1.97363 9.08 159 150 137
-0.748606 1.97363 9.08 157 148 135
-0.737853 1.97146 9.07 155 146 135
-0.727925 1.97146 9.07 155 146 135
-0.717206 1.96928 9.06 156 147 136
-0.707289 1.96928 9.06 156 147 136
-0.697371 1.96928 9.06 154 147 137
-0.687454 1.96928 9.06 153 146 136
-0.677537 1.96928 9.06 150 143 133
-0.66762 1.96928 9.06 152 145 135
-0.657703 1.96928 9.06 148 143 133
-0.648501 1.97146 9.07 147 142 132
-0.639277 1.97363 9.08 147 142 132
-0.630031 1.9758 9.09 147 142 132
-0.622128 1.98233 9.12 146 142 135
-0.613487 1.98667 9.14 142 138 131
-0 0 0 142 143 140
-0 0 0 147 145 139
-0 0 0 150 148 142
-0 0 0 152 147 142
-0 0 0 155 150 145
-0 0 0 160 152 145
-0 0 0 159 151 144
-0 0 0 167 153 143
-1.5013 2.03382 9.31 175 161 151
-1.48791 2.02945 9.29 141 123 111
-1.47774 2.02945 9.29 95 77 65
-1.46757 2.02945 9.29 113 92 81
-1.45583 2.02727 9.28 94 73 62
-1.44412 2.02508 9.27 79 61 49
-1.43242 2.0229 9.26 82 64 52
-1.42229 2.0229 9.26 85 69 57
-1.41062 2.02071 9.25 87 71 59
-1.39899 2.01853 9.24 88 74 62
-1.38737 2.01635 9.23 87 73 61
-1.37727 2.01635 9.23 90 80 64
-1.3642 2.01198 9.21 94 84 68
-1.35412 2.01198 9.21 91 81 65
-1.34258 2.00979 9.2 93 83 67
-1.33251 2.00979 9.2 93 83 67
-1.32244 2.00979 9.2 96 86 70
-1.31237 2.00979 9.2 92 87 70
-1.3023 2.00979 9.2 87 82 65
-1.29223 2.00979 9.2 80 77 60
-1.28216 2.00979 9.2 81 78 61
-1.27209 2.00979 9.2 87 84 67
-1.26202 2.00979 9.2 92 89 72
-1.25058 2.00761 9.19 96 93 76
-1.24052 2.00761 9.19 90 87 70
-1.23047 2.00761 9.19 79 76 59
-1.22041 2.00761 9.19 77 74 57
-1.20903 2.00542 9.18 77 74 57
-1.19898 2.00542 9.18 80 77 60
-1.18764 2.00324 9.17 78 77 60
-1.1776 2.00324 9.17 77 76 59
-1.16629 2.00105 9.16 77 76 59
-1.15626 2.00105 9.16 77 76 59
-1.14499 1.99887 9.15 63 64 49
-1.13497 1.99887 9.15 63 64 49
-1.12495 1.99887 9.15 61 62 47
-1.11494 1.99887 9.15 61 62 47
-1.10372 1.99668 9.14 57 62 49
-1.09371 1.99668 9.14 60 65 52
-1.08371 1.99668 9.14 64 73 59
-1.0737 1.99668 9.14 65 74 60
-1.0637 1.99668 9.14 63 73 61
-1.05369 1.99668 9.14 77 87 75
-1.04369 1.99668 9.14 81 95 85
-1.03368 1.99668 9.14 77 91 81
-1.02368 1.99668 9.14 100 113 111
-1.01367 1.99668 9.14 85 98 96
-1.00367 1.99668 9.14 42 55 54
-0.992577 1.9945 9.13 48 61 60
-0.982583 1.9945 9.13 46 61 67
-0.972589 1.9945 9.13 52 67 73
-0.961541 1.99231 9.12 47 62 68
-0.951559 1.99231 9.12 113 128 134
-0.940544 1.99013 9.11 84 97 103
-0.92955 1.98795 9.1 78 91 97
-0.918579 1.98576 9.09 77 90 96
-0.908629 1.98576 9.09 74 87 93
-0.898679 1.98576 9.09 77 97 102
-0.887751 1.98358 9.08 88 108 113
-0.877812 1.98358 9.08 96 117 119
-0.867873 1.98358 9.08 70 91 93
-0.857934 1.98358 9.08 58 75 69
-0.847995 1.98358 9.08 106 123 117
-0.838057 1.98358 9.08 162 164 153
-0.828118 1.98358 9.08 153 155 144
-0.818179 1.98358 9.08 158 156 142
-0.80913 1.98576 9.09 158 156 142
-0.79918 1.98576 9.09 161 155 141
-0.78923 1.98576 9.09 160 154 140
-0.77928 1.98576 9.09 162 153 140
-0.768484 1.98358 9.08 161 152 139
-0.758545 1.98358 9.08 162 153 140
-0.748606 1.98358 9.08 157 148 135
-0.737853 1.98139 9.07 155 146 135
-0.727925 1.98139 9.07 156 147 136
-0.717206 1.97921 9.06 157 148 137
-0.707289 1.97921 9.06 157 148 137
-0.696602 1.97702 9.05 154 147 137
-0.686696 1.97702 9.05 155 148 138
-0.676789 1.97702 9.05 154 147 137
-0.666883 1.97702 9.05 150 143 133
-0.657703 1.97921 9.06 147 142 132
-0.648501 1.98139 9.07 147 142 132
-0.639277 1.98358 9.08 150 145 135
-0.630031 1.98576 9.09 148 143 133
-0.621446 1.99013 9.11 145 142 132
-0.612816 1.9945 9.13 142 139 129
-0 0 0 140 145 141
-0 0 0 146 146 140
-0 0 0 148 148 142
-0 0 0 151 149 143
-0 0 0 154 152 146
-0 0 0 159 153 146
-0 0 0 161 155 148
-0 0 0 163 151 142
-1.50291 2.04621 9.32 174 162 153
-1.49111 2.04402 9.31 123 107 97
-1.47774 2.03963 9.29 83 67 57
-1.46757 2.03963 9.29 87 71 59
-1.45583 2.03743 9.28 72 56 44
-1.44567 2.03743 9.28 83 67 55
-1.43397 2.03524 9.27 82 66 54
-1.42229 2.03304 9.26 78 64 52
-1.41062 2.03085 9.25 87 73 61
-1.39899 2.02865 9.24 94 83 70
-1.38737 2.02646 9.23 91 80 67
-1.37727 2.02646 9.23 94 83 70
-1.36568 2.02426 9.22 94 83 70
-1.35412 2.02206 9.21 93 83 67
-1.34404 2.02206 9.21 94 84 68
-1.33251 2.01987 9.2 94 86 70
-1.32244 2.01987 9.2 94 86 70
-1.31237 2.01987 9.2 92 87 70
-1.3023 2.01987 9.2 90 85 68
-1.29223 2.01987 9.2 88 85 68
-1.28216 2.01987 9.2 87 84 67
-1.27209 2.01987 9.2 89 86 69
-1.26202 2.01987 9.2 85 82 65
-1.25058 2.01767 9.19 79 76 59
-1.24052 2.01767 9.19 74 71 54
-1.23047 2.01767 9.19 75 72 55
-1.21908 2.01548 9.18 70 67 50
-1.20903 2.01548 9.18 64 66 48
-1.19898 2.01548 9.18 62 64 46
-1.18764 2.01328 9.17 64 67 52
-1.1776 2.01328 9.17 60 63 48
-1.16629 2.01109 9.16 56 65 49
-1.15626 2.01109 9.16 64 73 57
-1.14499 2.00889 9.15 64 75 59
-1.13497 2.00889 9.15 70 81 65
-1.12495 2.00889 9.15 68 84 67
-1.11372 2.0067 9.14 80 96 79
-1.10372 2.0067 9.14 85 108 92
-1.09371 2.0067 9.14 89 112 96
-1.08371 2.0067 9.14 85 111 94
-1.0737 2.0067 9.14 85 111 94
-1.0637 2.0067 9.14 81 108 93
-1.05254 2.0045 9.13 82 109 94
-1.04255 2.0045 9.13 78 104 92
-1.03255 2.0045 9.13 74 100 88
-1.02256 2.0045 9.13 86 104 101
-1.01256 2.0045 9.13 80 98 95
-1.00257 2.0045 9.13 37 54 55
-0.992577 2.0045 9.13 57 74 75
-0.981507 2.0023 9.12 60 76 79
-0.971524 2.0023 9.12 51 67 70
-0.961541 2.0023 9.12 45 60 66
-0.950515 2.00011 9.11 95 110 116
-0.939511 1.99791 9.1 85 100 106
-0.928529 1.99572 9.09 67 82 88
-0.918579 1.99572 9.09 59 73 81
-0.908629 1.99572 9.09 75 89 97
-0.89769 1.99352 9.08 75 95 100
-0.887751 1.99352 9.08 84 104 109
-0.877812 1.99352 9.08 97 118 120
-0.867873 1.99352 9.08 74 95 97
-0.857934 1.99352 9.08 58 76 73
-0.847995 1.99352 9.08 115 133 130
-0.838057 1.99352 9.08 156 164 152
-0.828118 1.99352 9.08 147 155 143
-0.818179 1.99352 9.08 159 157 143
-0.80913 1.99572 9.09 159 157 143
-0.79918 1.99572 9.09 161 155 141
-0.78923 1.99572 9.09 160 154 140
-0.77928 1.99572 9.09 160 154 140
-0.768484 1.99352 9.08 160 154 140
-0.758545 1.99352 9.08 160 154 140
-0.748606 1.99352 9.08 157 151 137
-0.737853 1.99133 9.07 155 149 137
-0.727925 1.99133 9.07 156 150 138
-0.717206 1.98913 9.06 155 149 137
-0.707289 1.98913 9.06 154 148 136
-0.696602 1.98694 9.05 154 147 137
-0.686696 1.98694 9.05 154 147 137
-0.676789 1.98694 9.05 154 147 137
-0.666883 1.98694 9.05 153 146 136
-0.657703 1.98913 9.06 148 143 133
-0.647786 1.98913 9.06 147 142 132
-0.639277 1.99352 9.08 148 143 133
-0.630031 1.99572 9.09 148 143 133
-0.621446 2.00011 9.11 145 142 132
-0 0 0 141 146 142
-0 0 0 147 147 141
-0 0 0 148 148 142
-0 0 0 149 149 143
-0 0 0 152 152 146
-0 0 0 157 153 146
-0 0 0 159 155 148
-0 0 0 165 155 146
-1.50291 2.05642 9.32 174 164 155
-1.49111 2.05422 9.31 100 91 80
-1.47933 2.05201 9.3 70 61 50
-1.46757 2.0498 9.29 76 65 52
-1.45583 2.0476 9.28 73 62 49
-1.44412 2.04539 9.27 74 65 52
-1.43397 2.04539 9.27 84 75 62
-1.42229 2.04318 9.26 93 84 71
-1.4091 2.03877 9.24 95 86 73
-1.39899 2.03877 9.24 94 85 72
-1.38737 2.03657 9.23 94 85 72
-1.37727 2.03657 9.23 94 86 70
-1.36568 2.03436 9.22 93 85 69
-1.35412 2.03215 9.21 94 86 70
-1.34404 2.03215 9.21 95 87 71
-1.33251 2.02995 9.2 98 90 74
-1.32244 2.02995 9.2 96 88 72
-1.31237 2.02995 9.2 92 87 70
-1.3023 2.02995 9.2 84 79 62
-1.29223 2.02995 9.2 79 76 59
-1.28216 2.02995 9.2 77 74 57
-1.27209 2.02995 9.2 69 66 49
-1.26202 2.02995 9.2 59 56 39
-1.25058 2.02774 9.19 53 52 35
-1.24052 2.02774 9.19 53 52 35
-1.23047 2.02774 9.19 52 58 40
-1.21908 2.02553 9.18 59 65 47
-1.20903 2.02553 9.18 66 77 61
-1.19898 2.02553 9.18 69 80 64
-1.18764 2.02333 9.17 74 90 73
-1.1776 2.02333 9.17 79 95 78
-1.16629 2.02112 9.16 80 101 83
-1.15626 2.02112 9.16 95 116 98
-1.14499 2.01891 9.15 97 123 106
-1.13497 2.01891 9.15 94 120 103
-1.12495 2.01891 9.15 95 123 106
-1.11372 2.01671 9.14 99 127 110
-1.10372 2.01671 9.14 98 131 113
-1.09371 2.01671 9.14 99 132 114
-1.08371 2.01671 9.14 91 126 108
-1.0737 2.01671 9.14 91 126 108
-1.06253 2.0145 9.13 88 125 108
-1.05254 2.0145 9.13 81 118 101
-1.04255 2.0145 9.13 76 108 97
-1.03255 2.0145 9.13 64 96 85
-1.02256 2.0145 9.13 74 102 98
-1.01256 2.0145 9.13 67 95 91
-1.00147 2.01229 9.12 67 89 89
-0.99149 2.01229 9.12 77 99 99
-0.980431 2.01009 9.11 54 73 75
-0.970459 2.01009 9.11 51 70 72
-0.960487 2.01009 9.11 57 72 78
-0.949472 2.00788 9.1 71 86 92
-0.938479 2.00568 9.09 71 86 92
-0.928529 2.00568 9.09 57 72 78
-0.917568 2.00347 9.08 55 74 81
-0.907629 2.00347 9.08 110 129 136
-0.89769 2.00347 9.08 86 108 113
-0.887751 2.00347 9.08 80 102 107
-0.876846 2.00126 9.07 88 109 111
-0.866918 2.00126 9.07 67 88 90
-0.857934 2.00347 9.08 61 79 76
-0.847995 2.00347 9.08 128 146 143
-0.838057 2.00347 9.08 157 166 157
-0.828118 2.00347 9.08 149 158 149
-0.818179 2.00347 9.08 157 158 145
-0.80913 2.00568 9.09 156 157 144
-0.79918 2.00568 9.09 159 155 141
-0.78923 2.00568 9.09 158 154 140
-0.77928 2.00568 9.09 160 154 140
-0.768484 2.00347 9.08 161 155 141
-0.758545 2.00347 9.08 160 154 140
-0.748606 2.00347 9.08 156 150 136
-0.737853 2.00126 9.07 155 149 137
-0.727925 2.00126 9.07 156 150 138
-0.717206 1.99906 9.06 155 149 137
-0.707289 1.99906 9.06 153 147 135
-0.696602 1.99685 9.05 153 146 136
-0.686696 1.99685 9.05 153 146 136
-0.676789 1.99685 9.05 151 146 136
-0.666883 1.99685 9.05 150 145 135
-0.657703 1.99906 9.06 148 143 133
-0.648501 2.00126 9.07 147 142 132
-0.639277 2.00347 9.08 147 142 132
-0.630031 2.00568 9.09 147 142 132
-0.621446 2.01009 9.11 144 140 133
-0 0 0 142 147 143
-0 0 0 153 155 149
-0 0 0 149 151 145
-0 0 0 152 152 146
-0 0 0 153 153 147
-0 0 0 156 155 147
-0 0 0 156 155 147
-0 0 0 163 158 148
-1.50291 2.06663 9.32 166 161 151
-1.49111 2.06442 9.31 83 79 67
-1.47774 2.05998 9.29 72 68 56
-1.46757 2.05998 9.29 87 83 69
-1.4574 2.05998 9.29 81 77 63
-1.44567 2.05776 9.28 75 71 57
-1.43397 2.05555 9.27 91 87 73
-1.42229 2.05333 9.26 96 90 76
-1.41062 2.05111 9.25 92 86 72
-1.39899 2.04889 9.24 94 85 72
-1.38737 2.04668 9.23 94 85 72
-1.37727 2.04668 9.23 94 85 72
-1.36568 2.04446 9.22 96 87 74
-1.35412 2.04224 9.21 100 91 78
-1.34404 2.04224 9.21 95 86 73
-1.33251 2.04002 9.2 82 76 62
-1.32244 2.04002 9.2 72 66 52
-1.31237 2.04002 9.2 67 61 47
-1.3023 2.04002 9.2 64 58 44
-1.29223 2.04002 9.2 63 59 45
-1.28216 2.04002 9.2 67 63 49
-1.27209 2.04002 9.2 63 64 49
-1.26202 2.04002 9.2 66 67 52
-1.25058 2.03781 9.19 72 81 65
-1.24052 2.03781 9.19 78 87 71
-1.23047 2.03781 9.19 71 92 74
-1.21908 2.03559 9.18 81 102 84
-1.20903 2.03559 9.18 90 116 97
-1.19768 2.03337 9.17 85 111 92
-1.18764 2.03337 9.17 84 114 95
-1.17632 2.03115 9.16 95 125 106
-1.16629 2.03115 9.16 96 126 107
-1.15626 2.03115 9.16 97 127 108
-1.14499 2.02894 9.15 98 128 109
-1.13497 2.02894 9.15 94 124 105
-1.12495 2.02894 9.15 94 129 111
-1.11372 2.02672 9.14 94 129 111
-1.10372 2.02672 9.14 91 129 110
-1.09371 2.02672 9.14 90 128 109
-1.08252 2.0245 9.13 85 125 106
-1.07253 2.0245 9.13 87 127 108
-1.06253 2.0245 9.13 85 125 106
-1.05254 2.0245 9.13 85 125 106
-1.04255 2.0245 9.13 83 117 108
-1.03142 2.02228 9.12 61 95 86
-1.02144 2.02228 9.12 67 99 97
-1.01146 2.02228 9.12 97 129 127
-1.00147 2.02228 9.12 93 121 122
-0.990403 2.02007 9.11 85 113 114
-0.980431 2.02007 9.11 82 104 109
-0.970459 2.02007 9.11 60 82 87
-0.959433 2.01785 9.1 73 91 96
-0.948429 2.01563 9.09 72 90 95
-0.938479 2.01563 9.09 74 92 97
-0.927507 2.01341 9.08 78 96 101
-0.917568 2.01341 9.08 95 116 123
-0.907629 2.01341 9.08 119 140 147
-0.89769 2.01341 9.08 103 128 132
-0.887751 2.01341 9.08 101 126 130
-0.876846 2.0112 9.07 100 123 125
-0.866918 2.0112 9.07 60 83 85
-0.857934 2.01341 9.08 62 80 77
-0.847995 2.01341 9.08 121 139 136
-0.838057 2.01341 9.08 155 164 155
-0.828118 2.01341 9.08 148 157 148
-0.81908 2.01563 9.09 155 158 145
-0.80913 2.01563 9.09 154 157 144
-0.79918 2.01563 9.09 159 155 141
-0.78923 2.01563 9.09 158 154 140
-0.77928 2.01563 9.09 160 154 140
-0.76933 2.01563 9.09 161 155 141
-0.758545 2.01341 9.08 164 158 146
-0.748606 2.01341 9.08 155 149 137
-0.737853 2.0112 9.07 154 148 136
-0.727925 2.0112 9.07 156 150 138
-0.717206 2.00898 9.06 155 149 137
-0.707289 2.00898 9.06 154 148 136
-0.697371 2.00898 9.06 153 146 136
-0.686696 2.00676 9.05 154 147 137
-0.676789 2.00676 9.05 151 146 136
-0.66762 2.00898 9.06 150 145 135
-0.657703 2.00898 9.06 148 143 133
-0.648501 2.0112 9.07 148 143 133
-0.639277 2.01341 9.08 150 145 135
-0.630724 2.01785 9.1 150 145 135
-0.622128 2.02228 9.12 143 139 132
-0 0 0 140 148 141
-0 0 0 149 151 145
-0 0 0 149 151 145
-0 0 0 151 152 144
-0 0 0 153 154 146
-0 0 0 155 154 146
-0 0 0 155 154 146
-0 0 0 167 165 153
-1.50291 2.07684 9.32 151 149 137
-1.49111 2.07461 9.31 77 78 63
-1.48092 2.07461 9.31 78 79 64
-1.46915 2.07238 9.3 87 88 73
-1.4574 2.07016 9.29 90 91 76
-1.44567 2.06793 9.28 82 80 66
-1.43397 2.0657 9.27 89 87 73
-1.42229 2.06347 9.26 94 90 76
-1.41062 2.06124 9.25 92 88 74
-1.39899 2.05901 9.24 93 87 73
-1.38737 2.05679 9.23 92 86 72
-1.37727 2.05679 9.23 89 83 69
-1.36568 2.05456 9.22 81 75 61
-1.35412 2.05233 9.21 61 57 43
-1.34404 2.05233 9.21 58 54 40
-1.33396 2.05233 9.21 60 56 42
-1.32387 2.05233 9.21 62 58 44
-1.31379 2.05233 9.21 68 66 54
-1.30371 2.05233 9.21 73 71 59
-1.29363 2.05233 9.21 73 74 61
-1.28355 2.05233 9.21 75 76 63
-1.27209 2.0501 9.2 79 90 76
-1.26202 2.0501 9.2 92 103 89
-1.25195 2.0501 9.2 93 119 102
-1.24052 2.04787 9.19 102 128 111
-1.23047 2.04787 9.19 100 130 111
-1.21908 2.04564 9.18 97 127 108
-1.20903 2.04564 9.18 85 120 100
-1.19768 2.04342 9.17 87 122 102
-1.18764 2.04342 9.17 90 125 105
-1.17632 2.04119 9.16 89 124 104
-1.16629 2.04119 9.16 89 124 104
-1.15626 2.04119 9.16 92 127 107
-1.14499 2.03896 9.15 91 126 106
-1.13497 2.03896 9.15 92 127 107
-1.12495 2.03896 9.15 94 129 111
-1.11372 2.03673 9.14 93 128 110
-1.10372 2.03673 9.14 88 128 109
-1.09371 2.03673 9.14 83 123 104
-1.08252 2.0345 9.13 81 126 106
-1.07253 2.0345 9.13 79 124 104
-1.06253 2.0345 9.13 78 123 103
-1.05139 2.03227 9.12 77 122 102
-1.0414 2.03227 9.12 87 123 114
-1.03142 2.03227 9.12 65 101 92
-1.02032 2.03005 9.11 60 94 92
-1.01035 2.03005 9.11 78 112 110
-1.00037 2.03005 9.11 77 107 110
-0.989315 2.02782 9.1 67 97 100
-0.979355 2.02782 9.1 82 108 114
-0.969394 2.02782 9.1 65 91 97
-0.958378 2.02559 9.09 68 87 94
-0.948429 2.02559 9.09 70 89 96
-0.937446 2.02336 9.08 77 96 103
-0.927507 2.02336 9.08 99 118 125
-0.917568 2.02336 9.08 111 132 141
-0.907629 2.02336 9.08 117 138 147
-0.89769 2.02336 9.08 113 140 144
-0.887751 2.02336 9.08 118 145 149
-0.877812 2.02336 9.08 102 125 127
-0.867873 2.02336 9.08 56 79 81
-0.857934 2.02336 9.08 65 83 80
-0.847995 2.02336 9.08 125 143 140
-0.838057 2.02336 9.08 155 162 153
-0.82903 2.02559 9.09 149 156 147
-0.81908 2.02559 9.09 156 157 144
-0.80913 2.02559 9.09 156 157 144
-0.79918 2.02559 9.09 162 156 144
-0.78923 2.02559 9.09 160 154 142
-0.77928 2.02559 9.09 159 153 139
-0.76933 2.02559 9.09 160 154 140
-0.758545 2.02336 9.08 168 162 150
-0.748606 2.02336 9.08 154 148 136
-0.737853 2.02113 9.07 154 148 136
-0.727925 2.02113 9.07 155 149 137
-0.717206 2.0189 9.06 155 149 137
-0.707289 2.0189 9.06 155 149 137
-0.697371 2.0189 9.06 155 149 137
-0.687454 2.0189 9.06 155 149 137
-0.677537 2.0189 9.06 153 148 138
-0.66762 2.0189 9.06 151 146 136
-0.657703 2.0189 9.06 148 143 133
-0.649216 2.02336 9.08 147 142 132
-0.639981 2.02559 9.09 148 144 137
-0.631417 2.03005 9.11 148 144 137
-0.62281 2.0345 9.13 143 138 133
-1.81575 2.3916 10.68 139 147 140
-0 0 0 145 147 141
-0 0 0 146 148 142
-0 0 0 151 152 144
-0 0 0 152 153 145
-0 0 0 155 155 144
-0 0 0 155 155 144
-0 0 0 165 166 153
-1.50453 2.08929 9.33 136 137 124
-1.49271 2.08705 9.32 77 82 67
-1.48092 2.08481 9.31 90 95 80
-1.46915 2.08257 9.3 103 108 93
-1.4574 2.08033 9.29 95 100 85
-1.44567 2.07809 9.28 86 89 74
-1.43397 2.07585 9.27 88 91 76
-1.42229 2.07361 9.26 89 87 73
-1.41062 2.07137 9.25 93 91 77
-1.39899 2.06914 9.24 88 84 70
-1.38887 2.06914 9.24 75 71 57
-1.37727 2.0669 9.23 68 64 50
-1.36568 2.06466 9.22 67 63 49
-1.35559 2.06466 9.22 59 60 45
-1.34404 2.06242 9.21 69 70 55
-1.33396 2.06242 9.21 72 77 64
-1.32387 2.06242 9.21 80 85 72
-1.31379 2.06242 9.21 87 96 82
-1.30371 2.06242 9.21 94 103 89
-1.29363 2.06242 9.21 101 117 102
-1.28355 2.06242 9.21 106 122 107
-1.27347 2.06242 9.21 95 117 103
-1.26202 2.06018 9.2 101 123 109
-1.25195 2.06018 9.2 97 124 109
-1.24187 2.06018 9.2 92 119 104
-1.23047 2.05794 9.19 87 122 104
-1.22041 2.05794 9.19 89 124 106
-1.20903 2.0557 9.18 86 121 103
-1.19768 2.05346 9.17 86 121 103
-1.18764 2.05346 9.17 90 128 107
-1.17632 2.05122 9.16 89 127 106
-1.16629 2.05122 9.16 89 127 106
-1.15626 2.05122 9.16 92 130 109
-1.14499 2.04898 9.15 94 132 111
-1.13497 2.04898 9.15 92 130 109
-1.12495 2.04898 9.15 91 129 108
-1.11372 2.04674 9.14 90 128 107
-1.10372 2.04674 9.14 85 127 108
-1.09371 2.04674 9.14 83 125 106
-1.08252 2.0445 9.13 79 124 104
-1.07253 2.0445 9.13 78 123 103
-1.06137 2.04226 9.12 77 122 102
-1.05139 2.04226 9.12 77 122 102
-1.0414 2.04226 9.12 88 131 116
-1.03029 2.04002 9.11 70 113 98
-1.02032 2.04002 9.11 66 100 98
-1.00924 2.03779 9.1 72 106 104
-0.999276 2.03779 9.1 90 122 125
-0.988228 2.03555 9.09 93 125 128
-0.978278 2.03555 9.09 104 130 136
-0.968328 2.03555 9.09 78 104 110
-0.958378 2.03555 9.09 61 80 87
-0.947385 2.03331 9.08 68 87 94
-0.937446 2.03331 9.08 66 83 90
-0.927507 2.03331 9.08 66 83 90
-0.917568 2.03331 9.08 67 88 97
-0.907629 2.03331 9.08 94 115 124
-0.89769 2.03331 9.08 111 140 145
-0.887751 2.03331 9.08 110 139 144
-0.877812 2.03331 9.08 67 93 94
-0.867873 2.03331 9.08 50 76 77
-0.857934 2.03331 9.08 76 93 87
-0.847995 2.03331 9.08 142 159 153
-0.838979 2.03555 9.09 154 162 150
-0.82903 2.03555 9.09 150 158 146
-0.81908 2.03555 9.09 158 156 144
-0.80913 2.03555 9.09 158 156 144
-0.79918 2.03555 9.09 162 156 144
-0.78923 2.03555 9.09 160 154 142
-0.77928 2.03555 9.09 161 152 141
-0.768484 2.03331 9.08 159 150 139
-0.758545 2.03331 9.08 156 147 136
-0.748606 2.03331 9.08 155 146 135
-0.737853 2.03107 9.07 154 148 136
-0.727925 2.03107 9.07 154 148 136
-0.717997 2.03107 9.07 155 149 137
-0.707289 2.02883 9.06 155 149 137
-0.697371 2.02883 9.06 155 149 137
-0.687454 2.02883 9.06 155 149 137
-0.677537 2.02883 9.06 153 148 138
-0.668357 2.03107 9.07 151 146 136
-0.658429 2.03107 9.07 148 143 133
-0.649931 2.03555 9.09 147 142 132
-0.641389 2.04002 9.11 146 142 135
-0.632111 2.04226 9.12 146 142 135
-0.623492 2.04674 9.14 143 138 133
-1.81064 2.39655 10.65 141 149 142
-0 0 0 147 150 142
-0 0 0 149 152 144
-0 0 0 151 152 144
-0 0 0 152 153 145
-0 0 0 155 155 144
-0 0 0 156 156 145
-0 0 0 168 169 156
-1.50614 2.10176 9.34 129 130 117
-1.49271 2.09726 9.32 81 90 74
-1.48092 2.09501 9.31 94 103 87
-1.47073 2.09501 9.31 94 108 91
-1.4574 2.09051 9.29 81 95 78
-1.44567 2.08826 9.28 78 87 71
-1.43397 2.08601 9.27 78 87 71
-1.42229 2.08376 9.26 73 76 61
-1.41062 2.08151 9.25 61 64 49
-1.39899 2.07926 9.24 62 63 48
-1.38887 2.07926 9.24 61 62 47
-1.37727 2.07701 9.23 57 60 45
-1.36716 2.07701 9.23 64 67 52
-1.35559 2.07476 9.22 63 74 60
-1.3455 2.07476 9.22 88 99 85
-1.33396 2.07251 9.21 112 126 109
-1.32531 2.07476 9.22 112 126 109
-1.31379 2.07251 9.21 128 144 127
-1.30371 2.07251 9.21 119 135 118
-1.29363 2.07251 9.21 106 129 111
-1.28355 2.07251 9.21 106 129 111
-1.27347 2.07251 9.21 99 126 111
-1.26202 2.07026 9.2 92 119 104
-1.25195 2.07026 9.2 90 119 104
-1.24187 2.07026 9.2 90 119 104
-1.23047 2.06801 9.19 86 121 103
-1.22041 2.06801 9.19 86 121 103
-1.20903 2.06575 9.18 85 123 104
-1.19768 2.0635 9.17 88 126 107
-1.18764 2.0635 9.17 88 128 109
-1.17632 2.06125 9.16 89 129 110
-1.16629 2.06125 9.16 90 130 111
-1.15626 2.06125 9.16 93 133 114
-1.14499 2.059 9.15 94 134 115
-1.13497 2.059 9.15 93 133 114
-1.12495 2.059 9.15 89 129 110
-1.11372 2.05675 9.14 87 127 108
-1.10372 2.05675 9.14 85 127 108
-1.09371 2.05675 9.14 83 125 106
-1.08252 2.0545 9.13 78 123 103
-1.07253 2.0545 9.13 77 122 102
-1.06137 2.05225 9.12 77 122 102
-1.05139 2.05225 9.12 77 122 102
-1.04026 2.05 9.11 79 123 105
-1.03029 2.05 9.11 78 122 104
-1.02032 2.05 9.11 64 101 96
-1.00924 2.04775 9.1 57 94 89
-0.998178 2.0455 9.09 82 113 118
-0.988228 2.0455 9.09 92 123 128
-0.978278 2.0455 9.09 101 130 135
-0.967263 2.04325 9.08 110 139 144
-0.957324 2.04325 9.08 91 111 116
-0.947385 2.04325 9.08 72 92 97
-0.937446 2.04325 9.08 85 103 108
-0.926486 2.041 9.07 81 99 104
-0.916558 2.041 9.07 81 102 109
-0.907629 2.04325 9.08 97 118 125
-0.89769 2.04325 9.08 101 130 135
-0.887751 2.04325 9.08 76 105 110
-0.877812 2.04325 9.08 46 74 75
-0.867873 2.04325 9.08 51 79 80
-0.857934 2.04325 9.08 91 109 100
-0.847995 2.04325 9.08 142 160 151
-0.838979 2.0455 9.09 158 162 151
-0.82903 2.0455 9.09 157 161 150
-0.81908 2.0455 9.09 162 158 146
-0.80913 2.0455 9.09 160 156 144
-0.79918 2.0455 9.09 164 155 144
-0.78923 2.0455 9.09 162 153 142
-0.778423 2.04325 9.08 162 153 142
-0.768484 2.04325 9.08 159 150 139
-0.758545 2.04325 9.08 159 150 139
-0.748606 2.04325 9.08 158 149 138
-0.738667 2.04325 9.08 155 149 137
-0.727925 2.041 9.07 154 148 136
-0.717997 2.041 9.07 154 148 136
-0.707289 2.03875 9.06 155 149 137
-0.697371 2.03875 9.06 156 150 138
-0.687454 2.03875 9.06 155 149 137
-0.678285 2.041 9.07 154 148 136
-0.669094 2.04325 9.08 153 147 135
-0.659155 2.04325 9.08 150 145 135
-0.650646 2.04775 9.1 148 143 133
-0.642093 2.05225 9.12 148 142 135
-0.632804 2.0545 9.13 147 141 134
-0.624174 2.059 9.15 144 138 136
-1.80384 2.39917 10.61 140 148 141
-0 0 0 147 150 142
-0 0 0 146 149 141
-0 0 0 151 152 144
-0 0 0 152 153 145
-0 0 0 154 153 145
-0 0 0 162 161 153
-0 0 0 164 166 155
-0 0 0 131 133 122
-0 0 0 91 105 90
-0 0 0 90 104 89
-1.47073 2.10521 9.31 90 108 91
-1.4574 2.10068 9.29 73 91 74
-1.44567 2.09842 9.28 58 72 55
-1.43397 2.09616 9.27 59 73 56
-1.42229 2.0939 9.26 55 66 50
-1.41062 2.09164 9.25 53 64 48
-1.39899 2.08938 9.24 60 71 55
-1.38887 2.08938 9.24 76 87 71
-1.37727 2.08712 9.23 89 107 90
-1.36716 2.08712 9.23 100 118 101
-1.35706 2.08712 9.23 97 118 100
-1.34696 2.08712 9.23 103 124 106
-1.3354 2.08486 9.22 117 135 118
-1.32531 2.08486 9.22 122 140 123
-1.31522 2.08486 9.22 118 136 119
-1.30513 2.08486 9.22 115 133 116
-1.29363 2.08259 9.21 106 132 113
-1.28355 2.08259 9.21 100 126 107
-1.27347 2.08259 9.21 92 120 103
-1.26202 2.08033 9.2 92 120 103
-1.25195 2.08033 9.2 88 118 101
-1.24052 2.07807 9.19 88 118 101
-1.23047 2.07807 9.19 91 124 106
-1.21908 2.07581 9.18 91 124 106
-1.20903 2.07581 9.18 90 128 109
-1.19768 2.07355 9.17 94 132 113
-1.18764 2.07355 9.17 96 134 115
-1.17632 2.07129 9.16 96 134 115
-1.16629 2.07129 9.16 95 133 114
-1.15626 2.07129 9.16 95 133 114
-1.14624 2.07129 9.16 93 133 114
-1.13497 2.06903 9.15 90 130 111
-1.12495 2.06903 9.15 86 126 107
-1.11494 2.06903 9.15 86 126 107
-1.10372 2.06677 9.14 84 126 107
-1.09371 2.06677 9.14 81 123 104
-1.08252 2.0645 9.13 79 124 104
-1.07253 2.0645 9.13 81 126 106
-1.06253 2.0645 9.13 78 123 103
-1.05139 2.06224 9.12 76 121 101
-1.0414 2.06224 9.12 75 119 101
-1.03029 2.05998 9.11 76 120 102
-1.02032 2.05998 9.11 70 111 101
-1.00924 2.05772 9.1 54 95 85
-0.998178 2.05546 9.09 69 103 106
-0.988228 2.05546 9.09 88 122 125
-0.978278 2.05546 9.09 101 132 137
-0.967263 2.0532 9.08 113 144 149
-0.957324 2.0532 9.08 114 140 146
-0.947385 2.0532 9.08 97 123 129
-0.936414 2.05094 9.07 103 122 129
-0.926486 2.05094 9.07 99 118 125
-0.916558 2.05094 9.07 97 118 125
-0.907629 2.0532 9.08 94 115 122
-0.89769 2.0532 9.08 80 106 112
-0.887751 2.0532 9.08 54 80 86
-0.877812 2.0532 9.08 50 78 74
-0.867873 2.0532 9.08 63 91 87
-0.857934 2.0532 9.08 110 124 114
-0.847995 2.0532 9.08 141 155 145
-0.838979 2.05546 9.09 169 170 157
-0.82903 2.05546 9.09 159 160 147
-0.81908 2.05546 9.09 165 159 147
-0.80913 2.05546 9.09 162 156 144
-0.79918 2.05546 9.09 162 156 144
-0.78923 2.05546 9.09 162 156 144
-0.778423 2.0532 9.08 162 153 142
-0.768484 2.0532 9.08 159 150 139
-0.758545 2.0532 9.08 159 150 139
-0.748606 2.0532 9.08 159 150 139
-0.738667 2.0532 9.08 158 149 138
-0.728728 2.0532 9.08 157 148 137
-0.717997 2.05094 9.07 154 148 136
-0.708069 2.05094 9.07 155 149 137
-0.698141 2.05094 9.07 157 151 139
-0.688213 2.05094 9.07 155 149 137
-0.679033 2.0532 9.08 151 146 136
-0.669094 2.0532 9.08 150 145 135
-0.659881 2.05546 9.09 148 142 135
-0.651361 2.05998 9.11 148 142 135
-0.642797 2.0645 9.13 147 141 134
-0.63419 2.06903 9.15 147 141 134
-0.624856 2.07129 9.16 143 137 135
-1.79874 2.40397 10.58 138 148 143
-0 0 0 147 150 142
-0 0 0 147 150 142
-0 0 0 149 150 142
-0 0 0 153 154 146
-0 0 0 155 155 144
-0 0 0 159 159 148
-0 0 0 147 151 140
-0 0 0 121 125 114
-1.49431 2.11995 9.33 97 115 100
-1.48251 2.11768 9.32 87 105 90
-1.47073 2.1154 9.31 89 112 96
-1.4574 2.11086 9.29 88 111 95
-1.44567 2.10859 9.28 56 80 59
-1.43397 2.10632 9.27 52 76 55
-1.42229 2.10404 9.26 69 91 70
-1.41062 2.10177 9.25 76 98 77
-1.39899 2.0995 9.24 78 102 81
-1.38887 2.0995 9.24 78 102 81
-1.37876 2.0995 9.24 99 127 108
-1.36716 2.09723 9.23 100 128 109
-1.35706 2.09723 9.23 102 128 109
-1.34696 2.09723 9.23 99 125 106
-1.33685 2.09723 9.23 106 127 109
-1.32675 2.09723 9.23 115 136 118
-1.31665 2.09723 9.23 112 133 115
-1.30513 2.09495 9.22 110 131 113
-1.29504 2.09495 9.22 113 136 120
-1.28355 2.09268 9.21 97 120 104
-1.27347 2.09268 9.21 77 103 86
-1.26202 2.09041 9.2 78 104 87
-1.25195 2.09041 9.2 81 109 92
-1.24052 2.08814 9.19 81 109 92
-1.23047 2.08814 9.19 82 110 93
-1.21908 2.08587 9.18 84 112 95
-1.20903 2.08587 9.18 87 119 103
-1.19768 2.08359 9.17 94 126 110
-1.18764 2.08359 9.17 94 131 114
-1.1776 2.08359 9.17 95 132 115
-1.16629 2.08132 9.16 101 138 121
-1.15626 2.08132 9.16 103 140 123
-1.14499 2.07905 9.15 101 138 121
-1.13497 2.07905 9.15 98 135 118
-1.12495 2.07905 9.15 90 129 112
-1.11494 2.07905 9.15 82 121 104
-1.10372 2.07678 9.14 83 124 107
-1.09371 2.07678 9.14 83 124 107
-1.08371 2.07678 9.14 86 127 110
-1.07253 2.07451 9.13 92 133 116
-1.06253 2.07451 9.13 81 125 107
-1.05139 2.07223 9.12 75 119 101
-1.0414 2.07223 9.12 74 120 102
-1.03029 2.06996 9.11 73 119 101
-1.02032 2.06996 9.11 70 115 100
-1.00924 2.06769 9.1 63 108 93
-0.999276 2.06769 9.1 60 102 96
-0.988228 2.06542 9.09 74 116 110
-0.978278 2.06542 9.09 93 129 133
-0.967263 2.06314 9.08 96 132 136
-0.957324 2.06314 9.08 100 131 136
-0.947385 2.06314 9.08 97 128 133
-0.937446 2.06314 9.08 95 119 125
-0.927507 2.06314 9.08 89 113 119
-0.917568 2.06314 9.08 84 108 114
-0.907629 2.06314 9.08 74 98 104
-0.89769 2.06314 9.08 65 92 96
-0.887751 2.06314 9.08 62 89 93
-0.877812 2.06314 9.08 69 94 90
-0.867873 2.06314 9.08 74 99 95
-0.857934 2.06314 9.08 112 127 114
-0.847995 2.06314 9.08 143 158 145
-0.838979 2.06542 9.09 168 169 156
-0.82903 2.06542 9.09 159 160 147
-0.81908 2.06542 9.09 165 159 147
-0.80913 2.06542 9.09 164 158 146
-0.79918 2.06542 9.09 163 157 145
-0.78923 2.06542 9.09 164 158 146
-0.77928 2.06542 9.09 167 161 149
-0.768484 2.06314 9.08 154 148 136
-0.758545 2.06314 9.08 156 150 138
-0.748606 2.06314 9.08 156 150 138
-0.738667 2.06314 9.08 156 150 138
-0.728728 2.06314 9.08 155 149 137
-0.717997 2.06087 9.07 154 148 136
-0.708069 2.06087 9.07 154 148 136
-0.698141 2.06087 9.07 156 149 139
-0.688972 2.06314 9.08 157 150 140
-0.679781 2.06542 9.09 154 147 137
-0.669831 2.06542 9.09 153 146 136
-0.661333 2.06996 9.11 148 142 135
-0.652791 2.07451 9.13 146 140 133
-0.643501 2.07678 9.14 148 142 135
-0.634883 2.08132 9.16 146 140 133
-0.625539 2.08359 9.17 142 136 134
-0 0 0 140 147 143
-0 0 0 146 149 141
-0 0 0 147 150 142
-0 0 0 149 150 142
-0 0 0 154 155 147
-0 0 0 156 156 145
-0 0 0 159 159 148
-0 0 0 152 161 147
-0 0 0 102 111 97
-1.49431 2.13017 9.33 91 112 94
-1.48251 2.12789 9.32 92 113 95
-1.47073 2.1256 9.31 86 114 95
-1.4574 2.12104 9.29 95 123 104
-1.44567 2.11875 9.28 78 107 85
-1.43397 2.11647 9.27 71 100 78
-1.42229 2.11419 9.26 84 115 93
-1.41062 2.1119 9.25 96 127 105
-1.4005 2.1119 9.25 97 128 106
-1.38887 2.10962 9.24 94 125 103
-1.37876 2.10962 9.24 93 127 104
-1.36864 2.10962 9.24 94 128 105
-1.35706 2.10734 9.23 98 127 105
-1.34696 2.10734 9.23 99 128 106
-1.33685 2.10734 9.23 112 138 119
-1.32675 2.10734 9.23 112 138 119
-1.31665 2.10734 9.23 120 143 125
-1.30654 2.10734 9.23 121 144 126
-1.29504 2.10505 9.22 128 151 133
-1.28355 2.10277 9.21 95 118 100
-1.27347 2.10277 9.21 75 98 80
-1.26202 2.10049 9.2 78 101 83
-1.25195 2.10049 9.2 85 103 86
-1.24052 2.0982 9.19 86 104 87
-1.23047 2.0982 9.19 88 104 89
-1.21908 2.09592 9.18 87 103 88
-1.20903 2.09592 9.18 78 98 84
-1.19768 2.09364 9.17 88 108 94
-1.18764 2.09364 9.17 90 114 102
-1.1776 2.09364 9.17 91 115 103
-1.16629 2.09136 9.16 95 119 107
-1.15626 2.09136 9.16 98 122 110
-1.14499 2.08907 9.15 91 117 105
-1.13497 2.08907 9.15 96 122 110
-1.12495 2.08907 9.15 101 130 115
-1.11494 2.08907 9.15 91 120 105
-1.10372 2.08679 9.14 84 116 100
-1.09371 2.08679 9.14 98 130 114
-1.08371 2.08679 9.14 90 128 109
-1.07253 2.08451 9.13 84 122 103
-1.06253 2.08451 9.13 78 120 101
-1.05254 2.08451 9.13 76 118 99
-1.0414 2.08222 9.12 72 117 97
-1.03142 2.08222 9.12 72 117 97
-1.02032 2.07994 9.11 74 119 99
-1.01035 2.07994 9.11 72 117 97
-1.00037 2.07994 9.11 70 113 98
-0.989315 2.07766 9.1 69 112 97
-0.978278 2.07537 9.09 78 117 114
-0.968328 2.07537 9.09 81 120 117
-0.958378 2.07537 9.09 88 122 125
-0.947385 2.07309 9.08 93 127 130
-0.937446 2.07309 9.08 91 121 124
-0.927507 2.07309 9.08 84 114 117
-0.917568 2.07309 9.08 76 106 109
-0.907629 2.07309 9.08 71 101 104
-0.89769 2.07309 9.08 71 103 101
-0.887751 2.07309 9.08 71 103 101
-0.877812 2.07309 9.08 81 108 98
-0.867873 2.07309 9.08 84 111 101
-0.857934 2.07309 9.08 108 124 109
-0.847995 2.07309 9.08 135 151 136
-0.838057 2.07309 9.08 155 156 143
-0.828118 2.07309 9.08 156 157 144
-0.818179 2.07309 9.08 162 158 146
-0.80913 2.07537 9.09 163 159 147
-0.79918 2.07537 9.09 164 158 146
-0.788362 2.07309 9.08 163 157 145
-0.778423 2.07309 9.08 163 157 145
-0.768484 2.07309 9.08 154 148 136
-0.758545 2.07309 9.08 155 149 137
-0.748606 2.07309 9.08 155 149 137
-0.738667 2.07309 9.08 157 151 139
-0.728728 2.07309 9.08 157 151 139
-0.718789 2.07309 9.08 156 150 138
-0.70885 2.07309 9.08 153 147 135
-0.698911 2.07309 9.08 155 148 138
-0.688972 2.07309 9.08 162 155 145
-0.679781 2.07537 9.09 152 147 137
-0.671305 2.07994 9.11 151 146 136
-0.662059 2.08222 9.12 150 144 137
-0.652791 2.08451 9.13 146 140 133
-0.644205 2.08907 9.15 145 141 134
-0.634883 2.09136 9.16 145 141 134
-0.626221 2.09592 9.18 142 137 132
-0 0 0 141 148 144
-0 0 0 148 149 141
-1.7588 2.40421 10.48 149 150 142
-1.73232 2.38356 10.39 153 152 144
-0 0 0 155 154 146
-0 0 0 154 156 145
-0 0 0 156 158 147
-0 0 0 157 166 152
-0 0 0 114 123 109
-1.49271 2.13809 9.32 83 106 88
-1.48092 2.1358 9.31 92 115 97
-1.46915 2.13351 9.3 82 115 95
-1.4574 2.13121 9.29 82 115 95
-1.44567 2.12892 9.28 82 118 95
-1.43397 2.12662 9.27 84 120 97
-1.42229 2.12433 9.26 79 115 92
-1.41062 2.12204 9.25 82 118 95
-1.4005 2.12204 9.25 84 120 97
-1.38887 2.11974 9.24 86 122 99
-1.37876 2.11974 9.24 87 123 100
-1.36864 2.11974 9.24 89 125 102
-1.35853 2.11974 9.24 97 128 106
-1.34696 2.11745 9.23 102 133 111
-1.33685 2.11745 9.23 107 136 114
-1.32675 2.11745 9.23 109 138 116
-1.31665 2.11745 9.23 127 153 134
-1.30513 2.11515 9.22 121 147 128
-1.29504 2.11515 9.22 120 141 123
-1.28355 2.11286 9.21 91 112 94
-1.27347 2.11286 9.21 80 96 79
-1.26202 2.11056 9.2 87 103 86
-1.25058 2.10827 9.19 91 102 86
-1.24052 2.10827 9.19 91 102 86
-1.23047 2.10827 9.19 97 102 89
-1.21908 2.10598 9.18 97 102 89
-1.20903 2.10598 9.18 88 98 86
-1.19768 2.10368 9.17 100 110 98
-1.18764 2.10368 9.17 102 116 106
-1.17632 2.10139 9.16 100 114 104
-1.16629 2.10139 9.16 91 107 97
-1.15626 2.10139 9.16 83 99 89
-1.14624 2.10139 9.16 79 95 85
-1.13497 2.09909 9.15 77 93 83
-1.12495 2.09909 9.15 83 99 89
-1.11494 2.09909 9.15 78 94 84
-1.10492 2.09909 9.15 62 84 70
-1.09371 2.0968 9.14 85 107 93
-1.08371 2.0968 9.14 91 117 100
-1.0737 2.0968 9.14 87 113 96
-1.06253 2.09451 9.13 80 113 95
-1.05254 2.09451 9.13 78 111 93
-1.04255 2.09451 9.13 73 111 92
-1.03142 2.09221 9.12 78 116 97
-1.02144 2.09221 9.12 87 127 108
-1.01035 2.08992 9.11 81 121 102
-1.00037 2.08992 9.11 74 116 97
-0.990403 2.08992 9.11 73 115 96
-0.979355 2.08762 9.1 72 114 101
-0.968328 2.08533 9.09 77 119 106
-0.958378 2.08533 9.09 95 136 126
-0.948429 2.08533 9.09 90 131 121
-0.938479 2.08533 9.09 59 93 91
-0.927507 2.08304 9.08 68 102 100
-0.917568 2.08304 9.08 71 106 101
-0.907629 2.08304 9.08 71 106 101
-0.89769 2.08304 9.08 72 108 99
-0.888729 2.08533 9.09 73 109 100
-0.878779 2.08533 9.09 79 111 95
-0.868829 2.08533 9.09 77 109 93
-0.858879 2.08533 9.09 122 136 121
-0.847995 2.08304 9.08 157 171 156
-0.838057 2.08304 9.08 166 167 154
-0.828118 2.08304 9.08 158 159 146
-0.818179 2.08304 9.08 160 156 144
-0.80824 2.08304 9.08 161 157 145
-0.79918 2.08533 9.09 163 157 145
-0.788362 2.08304 9.08 157 151 139
-0.778423 2.08304 9.08 156 150 138
-0.768484 2.08304 9.08 156 150 138
-0.758545 2.08304 9.08 155 149 137
-0.748606 2.08304 9.08 156 150 138
-0.738667 2.08304 9.08 159 153 141
-0.728728 2.08304 9.08 160 154 142
-0.718789 2.08304 9.08 157 150 140
-0.70885 2.08304 9.08 153 146 136
-0.698911 2.08304 9.08 151 146 136
-0.689731 2.08533 9.09 151 146 136
-0.680529 2.08762 9.1 151 146 136
-0.671305 2.08992 9.11 152 147 137
-0.662785 2.09451 9.13 151 145 138
-0.653506 2.0968 9.14 150 144 137
-0.644205 2.09909 9.15 145 141 134
-0.635576 2.10368 9.17 145 141 134
-0 0 0 141 148 144
-1.77365 2.4203 10.5 149 150 142
-1.75712 2.41338 10.47 152 153 145
-1.72899 2.39033 10.37 154 153 145
-0 0 0 154 153 145
-0 0 0 152 155 142
-0 0 0 154 157 144
-0 0 0 150 161 145
-1.50453 2.15061 9.33 100 111 95
-1.49111 2.146 9.31 80 107 85
-1.48092 2.146 9.31 91 118 96
-1.46915 2.14369 9.3 82 118 95
-1.45583 2.13908 9.28 82 118 95
-1.44567 2.13908 9.28 81 120 96
-1.43397 2.13678 9.27 81 120 96
-1.42229 2.13447 9.26 78 117 93
-1.41215 2.13447 9.26 78 117 93
-1.4005 2.13217 9.25 82 121 97
-1.39037 2.13217 9.25 83 122 98
-1.37876 2.12986 9.24 84 123 99
-1.36864 2.12986 9.24 87 126 102
-1.35853 2.12986 9.24 93 127 104
-1.34842 2.12986 9.24 95 129 106
-1.33685 2.12756 9.23 103 131 112
-1.32675 2.12756 9.23 107 135 116
-1.31665 2.12756 9.23 127 153 134
-1.30513 2.12525 9.22 129 155 136
-1.29363 2.12295 9.21 130 146 129
-1.28355 2.12295 9.21 99 115 98
-1.27209 2.12064 9.2 82 93 79
-1.26202 2.12064 9.2 88 99 85
-1.25058 2.11834 9.19 94 99 86
-1.24052 2.11834 9.19 97 102 89
-1.22913 2.11603 9.18 105 106 93
-1.21908 2.11603 9.18 102 103 90
-1.20771 2.11373 9.17 107 111 100
-1.19768 2.11373 9.17 110 114 103
-1.18634 2.11142 9.16 109 116 107
-1.17632 2.11142 9.16 107 114 105
-1.16629 2.11142 9.16 85 94 85
-1.15626 2.11142 9.16 84 93 84
-1.14624 2.11142 9.16 88 98 86
-1.13497 2.10912 9.15 86 96 84
-1.12495 2.10912 9.15 81 91 79
-1.11494 2.10912 9.15 79 89 77
-1.10492 2.10912 9.15 76 87 71
-1.09491 2.10912 9.15 72 83 67
-1.08489 2.10912 9.15 71 83 64
-1.0737 2.10681 9.14 70 82 63
-1.0637 2.10681 9.14 76 91 71
-1.05254 2.10451 9.13 80 95 75
-1.04255 2.10451 9.13 74 95 77
-1.03255 2.10451 9.13 76 97 79
-1.02144 2.1022 9.12 77 105 86
-1.01146 2.1022 9.12 82 110 91
-1.00147 2.1022 9.12 82 115 97
-0.990403 2.0999 9.11 84 117 99
-0.980431 2.0999 9.11 81 119 100
-0.969394 2.09759 9.1 77 115 96
-0.958378 2.09529 9.09 77 114 97
-0.948429 2.09529 9.09 74 111 94
-0.938479 2.09529 9.09 66 103 91
-0.928529 2.09529 9.09 68 105 93
-0.918579 2.09529 9.09 75 112 100
-0.908629 2.09529 9.09 82 119 107
-0.898679 2.09529 9.09 74 112 98
-0.888729 2.09529 9.09 73 111 97
-0.878779 2.09529 9.09 81 111 94
-0.868829 2.09529 9.09 70 100 83
-0.858879 2.09529 9.09 130 141 127
-0.847995 2.09298 9.08 145 156 142
-0.838057 2.09298 9.08 164 162 150
-0.828118 2.09298 9.08 161 159 147
-0.818179 2.09298 9.08 160 156 144
-0.80824 2.09298 9.08 160 156 144
-0.798301 2.09298 9.08 161 157 145
-0.788362 2.09298 9.08 160 156 144
-0.778423 2.09298 9.08 155 151 139
-0.768484 2.09298 9.08 155 151 139
-0.758545 2.09298 9.08 154 150 138
-0.748606 2.09298 9.08 154 150 138
-0.738667 2.09298 9.08 155 151 139
-0.728728 2.09298 9.08 155 151 139
-0.718789 2.09298 9.08 154 149 139
-0.70885 2.09298 9.08 153 148 138
-0.698911 2.09298 9.08 153 148 138
-0.689731 2.09529 9.09 152 147 137
-0.680529 2.09759 9.1 152 147 137
-0.672042 2.1022 9.12 152 147 137
-0.662785 2.10451 9.13 152 146 139
-0.653506 2.10681 9.14 151 145 138
-0.644205 2.10912 9.15 146 142 135
-0.635576 2.11373 9.17 144 140 133
-0 0 0 141 148 144
-0 0 0 151 152 144
-0 0 0 153 154 146
-0 0 0 155 154 146
-0 0 0 156 155 147
-0 0 0 154 157 144
-0 0 0 161 164 151
-1.52286 2.17241 9.38 142 153 137
-1.50291 2.15851 9.32 102 113 97
-1.49111 2.1562 9.31 91 119 95
-1.48092 2.1562 9.31 92 120 96
-1.46915 2.15388 9.3 81 121 95
-1.45583 2.14925 9.28 80 120 94
-1.44412 2.14693 9.27 78 120 94
-1.43397 2.14693 9.27 80 122 96
-1.42229 2.14462 9.26 79 120 96
-1.41062 2.1423 9.25 79 120 96
-1.4005 2.1423 9.25 81 122 98
-1.39037 2.1423 9.25 83 124 100
-1.38025 2.1423 9.25 85 126 102
-1.36864 2.13998 9.24 87 128 104
-1.35853 2.13998 9.24 92 128 105
-1.34842 2.13998 9.24 93 129 106
-1.33685 2.13767 9.23 103 131 112
-1.32675 2.13767 9.23 111 139 120
-1.31522 2.13535 9.22 127 148 130
-1.30513 2.13535 9.22 133 154 136
-1.29363 2.13304 9.21 130 144 127
-1.28355 2.13304 9.21 109 123 106
-1.27209 2.13072 9.2 94 99 86
-1.26202 2.13072 9.2 94 99 86
-1.25058 2.1284 9.19 100 105 90
-1.24052 2.1284 9.19 112 117 102
-1.22913 2.12609 9.18 118 119 104
-1.21908 2.12609 9.18 119 120 105
-1.20771 2.12377 9.17 133 136 123
-1.19768 2.12377 9.17 120 123 110
-1.18634 2.12146 9.16 107 107 101
-1.17632 2.12146 9.16 106 106 100
-1.16629 2.12146 9.16 89 92 84
-1.15626 2.12146 9.16 88 91 83
-1.14624 2.12146 9.16 93 98 85
-1.13621 2.12146 9.16 90 95 82
-1.12495 2.11914 9.15 88 93 80
-1.11494 2.11914 9.15 86 91 78
-1.10492 2.11914 9.15 84 89 74
-1.09491 2.11914 9.15 84 89 74
-1.08489 2.11914 9.15 84 90 72
-1.07488 2.11914 9.15 84 90 72
-1.0637 2.11682 9.14 86 93 73
-1.05369 2.11682 9.14 84 91 71
-1.04255 2.11451 9.13 84 90 72
-1.03255 2.11451 9.13 82 88 70
-1.02256 2.11451 9.13 78 90 71
-1.01146 2.11219 9.12 81 93 74
-1.00147 2.11219 9.12 85 103 86
-0.99149 2.11219 9.12 78 96 79
-0.980431 2.10988 9.11 70 91 73
-0.970459 2.10988 9.11 74 95 77
-0.959433 2.10756 9.1 77 103 84
-0.948429 2.10524 9.09 84 110 91
-0.938479 2.10524 9.09 80 110 93
-0.928529 2.10524 9.09 75 105 88
-0.918579 2.10524 9.09 69 104 86
-0.908629 2.10524 9.09 75 110 92
-0.898679 2.10524 9.09 77 112 94
-0.888729 2.10524 9.09 78 113 95
-0.878779 2.10524 9.09 92 113 95
-0.868829 2.10524 9.09 82 103 85
-0.858879 2.10524 9.09 142 145 132
-0.847995 2.10293 9.08 148 151 138
-0.838057 2.10293 9.08 159 160 147
-0.828118 2.10293 9.08 159 160 147
-0.818179 2.10293 9.08 160 156 144
-0.80824 2.10293 9.08 161 157 145
-0.798301 2.10293 9.08 161 157 145
