ply
format ascii 1.0
comment Created by Open3D
element vertex 1385
property double x
property double y
property double z
property uchar red
property uchar green
property uchar blue
end_header
1.96184 -1.15821 10.95 183 177 170
1.97203 -1.15715 10.94 184 178 171
1.98038 -1.15504 10.92 181 177 170
1.98868 -1.15292 10.9 184 180 173
1.99694 -1.1508 10.88 184 180 173
2.007 -1.14975 10.87 184 180 173
2.01333 -1.14657 10.84 184 178 171
2.02333 -1.14552 10.83 184 178 171
2.0333 -1.14446 10.82 186 180 173
2.04326 -1.1434 10.81 186 180 173
2.05509 -1.1434 10.81 187 181 174
2.06883 -1.14446 10.82 187 181 174
2.08452 -1.14657 10.84 188 182 175
2.10219 -1.14975 10.87 188 182 175
2.11992 -1.15292 10.9 186 182 175
2.13968 -1.15715 10.94 186 182 175
2.15952 -1.16138 10.98 187 183 176
2.17945 -1.16561 11.02 188 184 177
2.19748 -1.16879 11.05 187 183 176
2.21957 -1.17407 11.1 186 182 175
2.23976 -1.17831 11.14 182 178 171
2.25802 -1.18148 11.17 185 181 174
2.27431 -1.18359 11.19 187 181 174
2.2886 -1.18465 11.2 186 180 173
2.30497 -1.18677 11.22 188 182 175
2.31932 -1.18782 11.23 187 181 174
2.33576 -1.18994 11.25 186 180 173
2.34808 -1.18994 11.25 187 181 174
2.36039 -1.18994 11.25 189 183 176
2.37271 -1.18994 11.25 186 180 173
2.38502 -1.18994 11.25 184 179 169
2.39734 -1.18994 11.25 188 183 173
2.40965 -1.18994 11.25 186 183 173
2.42196 -1.18994 11.25 186 183 173
2.43211 -1.18888 11.24 186 183 173
2.44224 -1.18782 11.23 185 182 172
2.45454 -1.18782 11.23 185 182 172
2.46683 -1.18782 11.23 186 183 173
2.47912 -1.18782 11.23 186 184 172
2.49363 -1.18888 11.24 186 184 172
2.50593 -1.18888 11.24 185 183 171
2.52048 -1.18994 11.25 185 183 171
2.53279 -1.18994 11.25 184 181 171
2.54737 -1.191 11.26 184 181 171
2.56197 -1.19206 11.27 185 181 174
2.57659 -1.19311 11.28 182 178 171
2.59123 -1.19417 11.29 183 177 170
2.60359 -1.19417 11.29 183 177 170
2.61595 -1.19417 11.29 184 179 169
2.6283 -1.19417 11.29 186 181 171
2.64066 -1.19417 11.29 188 183 173
2.65302 -1.19417 11.29 186 181 171
2.66302 -1.19311 11.28 186 182 170
2.67299 -1.19206 11.27 188 184 172
2.68056 -1.18994 11.25 187 185 173
2.68809 -1.18782 11.23 188 186 174
2.69557 -1.18571 11.21 188 185 175
2.70301 -1.18359 11.19 185 182 172
2.70798 -1.18042 11.16 180 177 167
2.71532 -1.17831 11.14 194 191 181
2.72017 -1.17513 11.11 202 199 189
2.72741 -1.17302 11.09 207 204 194
2.73461 -1.1709 11.07 209 205 198
2.73929 -1.16773 11.04 210 206 199
2.74639 -1.16561 11.02 219 208 209
2.75595 -1.16455 11.01 191 180 181
1.89509 -1.15668 11.05 194 192 186
1.90546 -1.15564 11.04 204 197 192
1.91581 -1.15459 11.03 197 190 185
1.92439 -1.15249 11.01 194 187 182
1.93292 -1.1504 10.99 194 187 182
1.94318 -1.14935 10.98 183 175 168
1.95164 -1.14726 10.96 185 177 170
1.96184 -1.14621 10.95 183 177 170
1.96842 -1.14307 10.92 184 178 171
1.97856 -1.14203 10.91 184 177 172
1.98686 -1.13993 10.89 186 179 174
1.9951 -1.13784 10.87 186 180 173
2.00331 -1.13575 10.85 187 181 174
2.01333 -1.1347 10.84 187 181 174
2.02146 -1.13261 10.82 187 181 174
2.03142 -1.13156 10.81 187 181 174
2.04326 -1.13156 10.81 187 181 174
2.05509 -1.13156 10.81 186 180 173
2.06692 -1.13156 10.81 186 180 173
2.0826 -1.13365 10.83 188 182 175
2.09832 -1.13575 10.85 186 180 173
2.11798 -1.13993 10.89 187 181 174
2.13577 -1.14307 10.92 188 182 175
2.15755 -1.14831 10.97 188 182 175
2.17747 -1.15249 11.01 188 182 175
2.19549 -1.15564 11.04 188 182 175
2.21557 -1.15982 11.08 188 182 175
2.23574 -1.16401 11.12 188 182 175
2.256 -1.1682 11.16 187 181 174
2.27228 -1.17029 11.18 186 180 173
2.2886 -1.17238 11.2 186 180 173
2.30292 -1.17343 11.21 188 182 175
2.31932 -1.17552 11.23 188 182 175
2.33576 -1.17762 11.25 187 181 174
2.34808 -1.17762 11.25 188 182 175
2.36039 -1.17762 11.25 189 184 174
2.37482 -1.17866 11.26 187 182 172
2.38714 -1.17866 11.26 188 183 173
2.39947 -1.17866 11.26 189 184 174
2.40965 -1.17762 11.25 188 183 173
2.42196 -1.17762 11.25 187 182 172
2.43428 -1.17762 11.25 187 184 174
2.44659 -1.17762 11.25 186 183 173
2.45891 -1.17762 11.25 179 176 166
2.47122 -1.17762 11.25 184 181 171
2.48354 -1.17762 11.25 186 183 173
2.49585 -1.17762 11.25 185 182 172
2.51039 -1.17866 11.26 186 182 170
2.52272 -1.17866 11.26 187 183 171
2.5373 -1.17971 11.27 187 182 172
2.55189 -1.18076 11.28 187 182 172
2.56424 -1.18076 11.28 187 182 172
2.57887 -1.1818 11.29 186 181 171
2.59123 -1.1818 11.29 183 178 168
2.60359 -1.1818 11.29 183 178 168
2.61595 -1.1818 11.29 186 181 171
2.6283 -1.1818 11.29 187 182 172
2.64066 -1.1818 11.29 189 184 174
2.65302 -1.1818 11.29 187 182 172
2.66066 -1.17971 11.27 185 182 172
2.67062 -1.17866 11.26 186 183 173
2.68056 -1.17762 11.25 186 186 175
2.68809 -1.17552 11.23 186 186 175
2.69557 -1.17343 11.21 184 184 173
2.70301 -1.17134 11.19 185 185 174
2.71041 -1.16924 11.17 184 184 173
2.71532 -1.1661 11.14 189 189 178
2.72262 -1.16401 11.12 194 193 185
2.72987 -1.16192 11.1 197 196 188
2.73708 -1.15982 11.08 198 194 187
2.74425 -1.15773 11.06 201 197 190
2.75137 -1.15564 11.04 208 200 198
2.75845 -1.15354 11.02 219 211 209
2.76548 -1.15145 11 197 192 196
1.88811 -1.14769 11.08 193 187 180
1.89681 -1.14561 11.06 197 191 184
1.90546 -1.14354 11.04 198 192 185
1.91581 -1.14251 11.03 203 197 190
1.92439 -1.14043 11.01 195 187 180
1.93292 -1.13836 10.99 191 183 176
1.94318 -1.13733 10.98 187 175 171
1.94986 -1.13422 10.95 187 175 171
1.96005 -1.13318 10.94 191 182 177
1.96842 -1.13111 10.92 189 180 175
1.97675 -1.12904 10.9 186 180 173
1.98503 -1.12697 10.88 186 180 173
1.9951 -1.12593 10.87 187 181 174
2.00146 -1.12283 10.84 189 183 176
2.01147 -1.12179 10.83 189 183 176
2.01959 -1.11972 10.81 187 181 174
2.03142 -1.11972 10.81 188 182 175
2.04137 -1.11868 10.8 187 181 174
2.05319 -1.11868 10.8 186 181 171
2.06501 -1.11868 10.8 187 182 172
2.07875 -1.11972 10.81 189 184 174
2.09639 -1.12283 10.84 186 181 171
2.11409 -1.12593 10.87 186 181 171
2.13185 -1.12904 10.9 187 182 172
2.15362 -1.13422 10.95 187 182 172
2.17154 -1.13733 10.98 187 182 172
2.19151 -1.14147 11.02 187 182 172
2.21357 -1.14665 11.07 189 184 174
2.23373 -1.15079 11.11 189 183 176
2.25196 -1.1539 11.14 187 181 174
2.27025 -1.15701 11.17 187 181 174
2.28452 -1.15804 11.18 187 181 174
2.30292 -1.16115 11.21 188 182 175
2.31932 -1.16322 11.23 188 182 175
2.33576 -1.16529 11.25 189 183 176
2.34808 -1.16529 11.25 189 183 176
2.36039 -1.16529 11.25 189 184 174
2.37482 -1.16633 11.26 188 183 173
2.38926 -1.16737 11.27 188 183 173
2.4016 -1.16737 11.27 188 183 173
2.41179 -1.16633 11.26 189 184 174
2.42412 -1.16633 11.26 194 189 179
2.43644 -1.16633 11.26 185 182 172
2.44877 -1.16633 11.26 187 184 174
2.45891 -1.16529 11.25 188 185 175
2.47122 -1.16529 11.25 187 184 174
2.48354 -1.16529 11.25 186 183 173
2.50029 -1.16737 11.27 185 182 172
2.51485 -1.1684 11.28 184 179 169
2.52944 -1.16944 11.29 188 183 173
2.5418 -1.16944 11.29 188 184 172
2.55416 -1.16944 11.29 188 184 172
2.56651 -1.16944 11.29 188 183 173
2.57887 -1.16944 11.29 187 182 172
2.59123 -1.16944 11.29 186 181 171
2.60359 -1.16944 11.29 187 182 172
2.61595 -1.16944 11.29 187 182 172
2.6283 -1.16944 11.29 188 183 173
2.63832 -1.1684 11.28 188 183 173
2.64832 -1.16737 11.27 187 182 172
2.6583 -1.16633 11.26 185 182 172
2.66825 -1.16529 11.25 186 183 173
2.68056 -1.16529 11.25 184 184 173
2.68809 -1.16322 11.23 184 184 173
2.69557 -1.16115 11.21 182 182 171
2.70543 -1.16012 11.2 183 183 172
2.71284 -1.15804 11.18 184 186 175
2.71776 -1.15494 11.15 178 180 169
2.72752 -1.1539 11.14 187 188 180
2.73233 -1.15079 11.11 192 193 185
2.73955 -1.14872 11.09 185 181 174
2.74921 -1.14769 11.08 201 197 190
2.75635 -1.14561 11.06 205 199 192
2.76095 -1.14251 11.03 212 206 199
2.76548 -1.1394 11 220 216 216
2.76995 -1.13629 10.97 190 186 186
2.77181 -1.13215 10.93 137 138 146
2.79937 -1.11454 10.76 210 204 202
2.81115 -1.11454 10.76 205 199 197
2.82292 -1.11454 10.76 215 209 202
2.8347 -1.11454 10.76 212 206 199
2.84648 -1.11454 10.76 214 208 201
2.85826 -1.11454 10.76 216 210 203
2.87004 -1.11454 10.76 210 205 200
2.88449 -1.11558 10.77 205 200 195
2.89897 -1.11661 10.78 205 200 195
2.91347 -1.11765 10.79 205 200 195
2.9307 -1.11972 10.81 188 186 186
2.94254 -1.11972 10.81 189 187 187
2.96257 -1.12283 10.84 169 174 177
1.88106 -1.13862 11.11 191 185 173
1.88981 -1.13657 11.09 197 188 177
1.89852 -1.13452 11.07 201 192 181
1.90719 -1.13247 11.05 206 197 186
1.91581 -1.13042 11.03 212 203 192
1.92439 -1.12837 11.01 220 210 201
1.93292 -1.12633 10.99 195 185 176
1.94141 -1.12428 10.97 193 180 174
1.94986 -1.12223 10.95 194 181 175
1.96005 -1.1212 10.94 192 184 177
1.96842 -1.11915 10.92 191 183 176
1.97675 -1.1171 10.9 189 181 174
1.98503 -1.11505 10.88 189 181 174
1.99327 -1.113 10.86 189 183 176
2.00146 -1.11095 10.84 189 183 176
2.00961 -1.1089 10.82 189 183 176
2.01959 -1.10788 10.81 188 182 175
2.02766 -1.10583 10.79 186 183 173
2.03948 -1.10583 10.79 185 182 172
2.04938 -1.1048 10.78 185 182 172
2.06118 -1.1048 10.78 186 183 173
2.07491 -1.10583 10.79 187 184 174
2.08865 -1.10685 10.8 187 184 174
2.10631 -1.10993 10.83 187 184 174
2.12207 -1.11198 10.85 186 183 173
2.14182 -1.11608 10.89 188 183 173
2.15967 -1.11915 10.92 190 185 175
2.17759 -1.12223 10.95 189 184 174
2.19757 -1.12633 10.99 189 184 174
2.21966 -1.13145 11.04 190 184 177
2.23983 -1.13555 11.08 193 187 180
2.25805 -1.13862 11.11 186 180 173
2.27634 -1.1417 11.14 187 181 174
2.2947 -1.14477 11.17 188 182 175
2.31106 -1.14682 11.19 188 182 175
2.32954 -1.1499 11.22 188 182 175
2.34808 -1.15297 11.25 190 184 177
2.36039 -1.15297 11.25 189 184 174
2.37482 -1.154 11.26 187 182 172
2.38714 -1.154 11.26 187 182 172
2.4016 -1.15502 11.27 187 182 172
2.41393 -1.15502 11.27 186 183 173
2.42412 -1.154 11.26 189 186 176
2.43861 -1.15502 11.27 187 184 174
2.45094 -1.15502 11.27 189 186 176
2.46109 -1.154 11.26 188 185 175
2.47342 -1.154 11.26 188 185 175
2.48795 -1.15502 11.27 186 183 173
2.50472 -1.15707 11.29 185 182 172
2.51708 -1.15707 11.29 186 181 171
2.52944 -1.15707 11.29 187 182 172
2.54405 -1.1581 11.3 189 185 173
2.55642 -1.1581 11.3 189 185 173
2.56651 -1.15707 11.29 188 184 172
2.58116 -1.1581 11.3 187 183 171
2.59123 -1.15707 11.29 189 185 173
2.60359 -1.15707 11.29 188 184 172
2.61595 -1.15707 11.29 188 184 172
2.62598 -1.15605 11.28 187 183 171
2.63832 -1.15605 11.28 187 183 171
2.64832 -1.15502 11.27 187 183 171
2.65594 -1.15297 11.25 184 182 170
2.66825 -1.15297 11.25 184 182 170
2.67818 -1.15195 11.24 185 183 171
2.6857 -1.1499 11.22 186 184 172
2.69557 -1.14887 11.21 184 184 173
2.70301 -1.14682 11.19 184 184 173
2.71284 -1.1458 11.18 185 185 174
2.7202 -1.14375 11.16 185 185 174
2.72752 -1.1417 11.14 184 184 173
2.73479 -1.13965 11.12 184 184 173
2.74202 -1.1376 11.1 185 184 176
2.74921 -1.13555 11.08 192 191 183
2.75885 -1.13452 11.07 193 189 182
2.76345 -1.13145 11.04 208 204 197
2.768 -1.12837 11.01 210 208 202
2.77247 -1.1253 10.98 205 203 197
2.77435 -1.1212 10.94 186 186 187
2.77868 -1.11813 10.91 190 190 191
2.78039 -1.11403 10.87 194 198 198
2.78458 -1.11095 10.84 201 205 205
2.78871 -1.10788 10.81 211 211 205
2.79277 -1.1048 10.78 211 211 205
2.79416 -1.1007 10.74 216 209 199
2.80592 -1.1007 10.74 204 197 187
2.81768 -1.1007 10.74 220 211 200
2.82943 -1.1007 10.74 208 199 188
2.84119 -1.1007 10.74 208 199 188
2.85294 -1.1007 10.74 211 202 191
2.86737 -1.10173 10.75 212 203 192
2.88181 -1.10275 10.76 213 204 193
2.89359 -1.10275 10.76 213 207 195
2.90807 -1.10378 10.77 214 208 196
2.92528 -1.10583 10.79 203 202 194
2.94254 -1.10788 10.81 197 196 188
2.9571 -1.1089 10.82 197 198 195
2.97169 -1.10993 10.83 196 197 194
2.9863 -1.11095 10.84 188 188 189
3.00093 -1.11198 10.85 181 181 182
3.01558 -1.113 10.86 174 171 175
3.03026 -1.11403 10.87 140 137 141
1.87227 -1.12848 11.13 190 179 166
1.88106 -1.12645 11.11 197 186 173
1.89152 -1.12544 11.1 195 184 171
1.90024 -1.12341 11.08 204 193 180
1.90719 -1.12037 11.05 211 202 189
1.91755 -1.11936 11.04 211 202 189
1.92439 -1.11631 11.01 213 204 191
1.93292 -1.11429 10.99 215 206 193
1.94141 -1.11226 10.97 196 185 174
1.94986 -1.11023 10.95 195 184 173
1.95826 -1.1082 10.93 197 185 176
1.96842 -1.10719 10.92 195 183 174
1.97675 -1.10516 10.9 186 179 169
1.98321 -1.10212 10.87 188 181 171
1.99327 -1.10111 10.86 186 179 169
2.00146 -1.09908 10.84 188 181 171
2.00961 -1.09705 10.82 190 185 175
2.01772 -1.09502 10.8 189 184 174
2.02766 -1.09401 10.79 187 182 172
2.03569 -1.09198 10.77 187 182 172
2.04558 -1.09097 10.76 188 185 175
2.05736 -1.09097 10.76 188 185 175
2.06914 -1.09097 10.76 188 185 175
2.08092 -1.09097 10.76 187 184 174
2.09658 -1.09299 10.78 187 184 174
2.1123 -1.09502 10.8 188 185 175
2.13002 -1.09806 10.83 188 185 175
2.1478 -1.10111 10.86 186 183 173
2.16367 -1.10313 10.88 189 184 174
2.18358 -1.10719 10.92 189 184 174
2.20156 -1.11023 10.95 190 185 175
2.22163 -1.11429 10.99 191 186 176
2.23976 -1.11733 11.02 182 178 171
2.25591 -1.11936 11.04 185 181 174
2.27827 -1.12443 11.09 186 182 175
2.2966 -1.12747 11.12 186 182 175
2.31708 -1.13152 11.16 186 182 175
2.33556 -1.13457 11.19 188 184 177
2.352 -1.13659 11.21 187 184 174
2.36638 -1.13761 11.22 187 184 174
2.38078 -1.13862 11.23 189 186 176
2.39734 -1.14065 11.25 187 184 174
2.40965 -1.14065 11.25 186 183 173
2.42196 -1.14065 11.25 187 184 174
2.43428 -1.14065 11.25 186 182 175
2.44659 -1.14065 11.25 191 187 180
2.45891 -1.14065 11.25 188 184 177
2.47342 -1.14166 11.26 191 187 180
2.48795 -1.14268 11.27 187 183 176
2.50472 -1.1447 11.29 189 185 178
2.51708 -1.1447 11.29 186 183 173
2.53168 -1.14572 11.3 187 184 174
2.54405 -1.14572 11.3 189 184 174
2.55868 -1.14673 11.31 187 182 172
2.57106 -1.14673 11.31 187 183 171
2.58344 -1.14673 11.31 189 185 173
2.59353 -1.14572 11.3 189 185 173
2.60359 -1.1447 11.29 188 184 172
2.61363 -1.14369 11.28 187 183 171
2.62598 -1.14369 11.28 186 182 170
2.63365 -1.14166 11.26 187 183 171
2.64362 -1.14065 11.25 187 183 171
2.65357 -1.13963 11.24 184 182 170
2.66351 -1.13862 11.23 184 182 170
2.6758 -1.13862 11.23 185 183 171
2.6833 -1.13659 11.21 185 183 171
2.69317 -1.13558 11.2 180 181 168
2.7006 -1.13355 11.18 183 184 171
2.71041 -1.13254 11.17 184 184 173
2.71776 -1.13051 11.15 184 184 173
2.72507 -1.12848 11.13 184 184 173
2.73479 -1.12747 11.12 184 184 173
2.74202 -1.12544 11.1 185 182 172
2.75169 -1.12443 11.09 186 183 173
2.76134 -1.12341 11.08 186 181 171
2.76846 -1.12138 11.06 200 195 185
2.77051 -1.11733 11.02 199 195 188
2.77247 -1.11327 10.98 203 199 192
2.77688 -1.11023 10.95 204 204 198
2.77868 -1.10618 10.91 190 190 184
0 -0 0 194 197 189
2.78202 -1.09806 10.83 196 199 191
2.78355 -1.09401 10.79 203 204 191
2.78759 -1.09097 10.76 205 206 193
2.79416 -1.08894 10.74 219 210 197
2.80592 -1.08894 10.74 220 211 198
2.81243 -1.08691 10.72 219 205 193
2.82416 -1.08691 10.72 216 202 190
2.8359 -1.08691 10.72 211 200 187
2.85029 -1.08793 10.73 210 199 186
2.86203 -1.08793 10.73 208 199 186
2.87646 -1.08894 10.74 206 197 184
2.8909 -1.08995 10.75 207 201 187
2.90537 -1.09097 10.76 207 201 187
2.91715 -1.09097 10.76 209 205 193
2.93709 -1.09401 10.79 209 205 193
2.95163 -1.09502 10.8 203 202 194
2.9662 -1.09604 10.81 198 197 189
2.98354 -1.09806 10.83 205 205 199
2.99816 -1.09908 10.84 211 211 205
3.01281 -1.10009 10.85 214 211 208
3.02747 -1.10111 10.86 207 204 201
3.04216 -1.10212 10.87 205 197 195
3.05405 -1.10212 10.87 198 190 188
3.06595 -1.10212 10.87 195 187 180
3.07785 -1.10212 10.87 198 190 183
3.08975 -1.10212 10.87 202 197 192
1.86342 -1.1183 11.15 176 171 161
1.87395 -1.11729 11.14 195 184 171
1.88445 -1.11629 11.13 195 184 171
1.89322 -1.11428 11.11 196 185 172
1.90024 -1.11128 11.08 209 198 185
1.90892 -1.10927 11.06 210 199 186
1.91755 -1.10726 11.04 210 199 186
1.92439 -1.10425 11.01 214 203 190
1.93292 -1.10225 10.99 223 212 199
1.94141 -1.10024 10.97 217 201 189
1.94986 -1.09824 10.95 203 187 175
1.95826 -1.09623 10.93 197 183 173
1.96662 -1.09423 10.91 196 182 172
1.97675 -1.09322 10.9 179 169 160
1.98321 -1.09021 10.87 188 178 169
1.99143 -1.08821 10.85 189 182 172
1.99962 -1.0862 10.83 190 183 173
2.00776 -1.0842 10.81 188 183 173
2.01585 -1.08219 10.79 188 183 173
2.02391 -1.08018 10.77 188 183 173
2.0338 -1.07918 10.76 190 185 175
2.04178 -1.07718 10.74 197 192 182
2.05354 -1.07718 10.74 189 184 174
2.06337 -1.07617 10.73 189 184 174
2.07705 -1.07718 10.74 190 185 175
2.0888 -1.07718 10.74 191 186 176
2.10252 -1.07818 10.75 191 186 176
2.11822 -1.08018 10.77 191 186 176
2.13396 -1.08219 10.79 189 184 174
2.14975 -1.0842 10.81 189 184 174
2.16758 -1.0872 10.84 188 183 173
2.18548 -1.09021 10.87 189 186 176
2.20344 -1.09322 10.9 191 188 178
2.22147 -1.09623 10.93 185 182 172
2.23956 -1.09924 10.96 186 183 173
2.25772 -1.10225 10.99 187 184 174
2.27801 -1.10626 11.03 187 184 174
2.29632 -1.10927 11.06 186 181 171
2.31468 -1.11228 11.09 187 182 172
2.33102 -1.11428 11.11 187 184 174
2.3474 -1.11629 11.13 187 184 174
2.36382 -1.1183 11.15 186 183 173
2.38029 -1.1203 11.17 186 183 173
2.3968 -1.12231 11.19 186 183 173
2.4112 -1.12331 11.2 186 183 173
2.42562 -1.12431 11.21 186 182 175
2.44224 -1.12632 11.23 189 185 178
2.45672 -1.12732 11.24 188 184 177
2.47122 -1.12833 11.25 192 188 181
2.48795 -1.13033 11.27 189 185 178
2.50472 -1.13234 11.29 187 183 176
2.51708 -1.13234 11.29 187 184 174
2.53168 -1.13334 11.3 187 184 174
2.5463 -1.13434 11.31 188 183 173
2.55868 -1.13434 11.31 186 181 171
2.56879 -1.13334 11.3 186 181 171
2.57887 -1.13234 11.29 189 184 174
2.58893 -1.13133 11.28 189 185 173
2.60128 -1.13133 11.28 187 183 171
2.60899 -1.12933 11.26 186 182 170
2.61899 -1.12833 11.25 184 180 168
2.62897 -1.12732 11.24 186 182 170
2.63657 -1.12532 11.22 187 183 171
2.64885 -1.12532 11.22 187 183 171
2.65876 -1.12431 11.21 187 183 171
2.66388 -1.12131 11.18 185 183 171
2.67612 -1.12131 11.18 182 180 168
2.68836 -1.12131 11.18 182 180 168
2.69335 -1.1183 11.15 184 182 170
2.70313 -1.11729 11.14 185 183 171
2.71532 -1.11729 11.14 186 184 172
2.72017 -1.11428 11.11 184 184 173
2.72987 -1.11328 11.1 183 183 172
2.73955 -1.11228 11.09 186 183 173
2.74921 -1.11128 11.08 187 184 174
2.75635 -1.10927 11.06 189 184 174
2.76345 -1.10726 11.04 195 190 180
2.768 -1.10425 11.01 201 195 188
2.76995 -1.10024 10.97 201 195 188
2.76928 -1.09523 10.92 196 193 183
2.77359 -1.09222 10.89 196 193 183
0 -0 0 208 206 194
2.77688 -1.0842 10.81 207 205 193
2.77839 -1.08018 10.77 217 213 201
2.78241 -1.07718 10.74 216 212 200
2.78896 -1.07517 10.72 222 213 200
2.79808 -1.07417 10.71 227 218 205
2.80981 -1.07417 10.71 224 213 200
2.82153 -1.07417 10.71 214 203 190
2.83325 -1.07417 10.71 209 200 187
2.84498 -1.07417 10.71 208 199 186
2.8567 -1.07417 10.71 209 203 189
2.86842 -1.07417 10.71 205 199 185
2.88283 -1.07517 10.72 205 199 185
2.89727 -1.07617 10.73 205 199 185
2.91172 -1.07718 10.74 201 197 185
2.92892 -1.07918 10.76 200 196 184
2.94344 -1.08018 10.77 194 194 183
2.96071 -1.08219 10.79 191 191 180
2.97528 -1.08319 10.8 190 189 181
2.98987 -1.0842 10.81 206 205 197
3.00448 -1.0852 10.82 213 211 205
3.02189 -1.0872 10.84 214 212 206
3.03656 -1.08821 10.85 212 204 202
3.04843 -1.08821 10.85 212 204 202
3.06031 -1.08821 10.85 213 207 193
3.07502 -1.08921 10.86 212 206 192
3.08975 -1.09021 10.87 209 207 193
3.10165 -1.09021 10.87 213 211 197
1.85454 -1.10807 11.17 193 183 174
1.8651 -1.10707 11.16 207 197 188
1.87395 -1.10509 11.14 195 186 173
1.88445 -1.1041 11.13 197 188 175
1.89322 -1.10211 11.11 201 192 179
1.90024 -1.09914 11.08 208 199 186
1.90892 -1.09715 11.06 208 197 184
1.91755 -1.09517 11.04 216 205 192
1.92439 -1.09219 11.01 215 205 189
1.93116 -1.08922 10.98 217 207 191
1.94141 -1.08823 10.97 228 213 198
1.94986 -1.08624 10.95 217 202 187
1.95826 -1.08426 10.93 211 195 183
1.96662 -1.08227 10.91 204 188 176
1.97675 -1.08128 10.9 199 187 178
1.98321 -1.07831 10.87 193 181 172
1.99143 -1.07632 10.85 190 183 173
1.99777 -1.07335 10.82 191 184 174
2.0059 -1.07136 10.8 188 183 173
2.01212 -1.06839 10.77 189 184 174
2.02203 -1.06739 10.76 189 184 174
2.03002 -1.06541 10.74 190 185 175
2.03798 -1.06343 10.72 186 181 171
2.0478 -1.06243 10.71 180 175 165
2.05952 -1.06243 10.71 188 183 173
2.07125 -1.06243 10.71 193 188 178
2.08297 -1.06243 10.71 193 188 178
2.09469 -1.06243 10.71 190 185 175
2.11035 -1.06442 10.73 190 186 174
2.12407 -1.06541 10.74 188 184 172
2.13981 -1.06739 10.76 191 187 175
2.15558 -1.06938 10.78 188 184 172
2.17341 -1.07235 10.81 190 186 174
2.18929 -1.07434 10.83 193 189 177
2.20521 -1.07632 10.85 193 189 177
2.22117 -1.07831 10.87 191 187 175
2.24129 -1.08227 10.91 190 186 174
2.25943 -1.08525 10.94 189 185 173
2.27763 -1.08823 10.97 188 184 172
2.2959 -1.0912 11 188 184 172
2.31214 -1.09319 11.02 189 185 173
2.32842 -1.09517 11.04 189 185 173
2.34262 -1.09616 11.05 186 183 173
2.36111 -1.09914 11.08 187 184 174
2.37966 -1.10211 11.11 187 184 174
2.39398 -1.10311 11.12 187 184 174
2.41048 -1.10509 11.14 187 184 174
2.42267 -1.10509 11.14 188 185 175
2.44142 -1.10807 11.17 188 185 175
2.45584 -1.10906 11.18 191 188 178
2.47471 -1.11204 11.21 191 188 178
2.49585 -1.116 11.25 188 185 175
2.51039 -1.11699 11.26 187 184 174
2.52272 -1.11699 11.26 186 183 173
2.53279 -1.116 11.25 186 183 173
2.54737 -1.11699 11.26 184 181 171
2.55742 -1.116 11.25 184 181 171
2.56974 -1.116 11.25 186 183 173
2.58205 -1.116 11.25 185 183 171
2.59206 -1.11501 11.24 184 182 170
2.59741 -1.11204 11.21 182 180 168
2.60735 -1.11104 11.2 182 180 168
2.61493 -1.10906 11.18 184 182 170
2.62717 -1.10906 11.18 185 183 171
2.63469 -1.10707 11.16 185 183 171
2.64216 -1.10509 11.14 185 183 171
2.64959 -1.10311 11.12 187 183 171
2.65937 -1.10211 11.11 187 183 171
2.66912 -1.10112 11.1 185 183 171
2.67644 -1.09914 11.08 185 183 171
2.68614 -1.09815 11.07 182 179 169
2.69582 -1.09715 11.06 184 181 171
2.70548 -1.09616 11.05 185 182 172
2.71758 -1.09616 11.05 185 182 172
2.72967 -1.09616 11.05 185 182 172
2.74177 -1.09616 11.05 185 182 172
2.75137 -1.09517 11.04 180 175 165
2.75595 -1.09219 11.01 194 189 179
2.76297 -1.09021 10.99 204 197 187
2.7649 -1.08624 10.95 204 197 187
2.7642 -1.08128 10.9 199 193 181
2.76595 -1.07731 10.86 189 183 171
2.76505 -1.07235 10.81 207 201 187
2.76917 -1.06938 10.78 203 197 183
2.77323 -1.0664 10.75 220 211 200
2.77723 -1.06343 10.72 225 216 205
2.78376 -1.06144 10.7 215 206 193
2.79286 -1.06045 10.69 212 203 190
2.80456 -1.06045 10.69 212 203 190
2.81626 -1.06045 10.69 215 206 193
2.82796 -1.06045 10.69 210 204 190
2.83966 -1.06045 10.69 207 201 187
2.85136 -1.06045 10.69 194 195 180
2.86307 -1.06045 10.69 187 188 173
2.87746 -1.06144 10.7 194 196 185
2.89187 -1.06243 10.71 192 194 183
2.9063 -1.06343 10.72 192 193 185
2.92076 -1.06442 10.73 187 188 180
2.93524 -1.06541 10.74 182 183 175
2.95248 -1.06739 10.76 195 196 188
2.96426 -1.06739 10.76 182 183 175
2.98157 -1.06938 10.78 187 188 180
2.99614 -1.07037 10.79 189 184 179
3.01074 -1.07136 10.8 195 190 185
3.02536 -1.07235 10.81 204 197 192
3.04001 -1.07335 10.82 191 184 179
3.05749 -1.07533 10.84 178 172 158
3.06936 -1.07533 10.84 185 179 165
3.08122 -1.07533 10.84 195 193 179
3.09594 -1.07632 10.85 188 186 172
1.8562 -1.09681 11.18 186 179 169
1.86677 -1.09583 11.17 191 184 174
1.87563 -1.09387 11.15 198 189 176
1.88614 -1.09289 11.14 199 190 177
1.89322 -1.08995 11.11 200 192 176
1.90195 -1.08798 11.09 204 196 180
1.90892 -1.08504 11.06 209 199 183
1.91755 -1.08308 11.04 214 204 188
1.92439 -1.08013 11.01 216 203 188
1.93116 -1.07719 10.98 216 203 188
1.93964 -1.07523 10.96 218 203 188
1.94986 -1.07425 10.95 227 212 197
1.95826 -1.07229 10.93 227 210 195
1.96842 -1.07131 10.92 217 200 185
1.97494 -1.06836 10.89 216 202 190
1.98321 -1.0664 10.87 203 189 177
1.9896 -1.06346 10.84 193 184 173
1.99592 -1.06051 10.81 193 184 173
2.00404 -1.05855 10.79 193 187 175
2.01212 -1.05659 10.77 192 186 174
2.02015 -1.05463 10.75 192 186 174
2.02813 -1.05267 10.73 193 187 175
2.03608 -1.0507 10.71 193 187 175
2.04589 -1.04972 10.7 195 189 177
2.05568 -1.04874 10.69 193 189 177
2.06738 -1.04874 10.69 195 191 179
2.07908 -1.04874 10.69 195 191 179
2.09078 -1.04874 10.69 191 187 175
2.10248 -1.04874 10.69 189 185 173
2.11616 -1.04972 10.7 176 172 160
2.12986 -1.0507 10.71 190 186 172
2.14359 -1.05168 10.72 190 186 172
2.15934 -1.05365 10.74 192 186 172
2.17514 -1.05561 10.76 193 187 173
2.19098 -1.05757 10.78 192 186 172
2.20687 -1.05953 10.8 192 186 172
2.22485 -1.06248 10.83 192 186 172
2.24084 -1.06444 10.85 191 185 171
2.25894 -1.06738 10.88 192 186 174
2.27503 -1.06934 10.9 193 187 175
2.29325 -1.07229 10.93 190 186 174
2.30943 -1.07425 10.95 191 187 175
2.32354 -1.07523 10.96 189 187 175
2.3398 -1.07719 10.98 189 187 175
2.35824 -1.08013 11.01 189 187 175
2.37245 -1.08112 11.02 187 185 173
2.38884 -1.08308 11.04 187 185 173
2.40092 -1.08308 11.04 187 185 173
2.41738 -1.08504 11.06 188 185 175
2.43388 -1.087 11.08 189 186 176
2.45263 -1.08995 11.11 189 186 176
2.47366 -1.09387 11.15 187 184 174
2.49479 -1.09779 11.19 182 179 169
2.5048 -1.09681 11.18 182 179 169
2.51703 -1.09681 11.18 188 185 175
2.53153 -1.09779 11.19 187 184 174
2.54378 -1.09779 11.19 187 184 174
2.55831 -1.09877 11.2 187 184 174
2.56828 -1.09779 11.19 186 183 173
2.57591 -1.09583 11.17 184 181 171
2.58119 -1.09289 11.14 185 182 172
2.5864 -1.08995 11.11 184 181 171
2.59856 -1.08995 11.11 184 181 171
2.60602 -1.08798 11.09 184 181 171
2.6158 -1.087 11.08 185 183 171
2.62081 -1.08406 11.05 185 183 171
2.62814 -1.0821 11.03 184 182 170
2.63543 -1.08013 11.01 184 182 170
2.64508 -1.07915 11 184 182 170
2.65229 -1.07719 10.98 185 183 171
2.6643 -1.07719 10.98 185 182 172
2.67389 -1.07621 10.97 184 181 171
2.68589 -1.07621 10.97 185 182 172
2.6979 -1.07621 10.97 185 182 172
2.70991 -1.07621 10.97 184 181 171
2.72192 -1.07621 10.97 179 176 166
2.73143 -1.07523 10.96 182 175 165
2.73842 -1.07327 10.94 202 195 185
2.74537 -1.07131 10.92 206 196 187
2.74975 -1.06836 10.89 213 203 194
2.75152 -1.06444 10.85 202 193 182
2.75321 -1.06051 10.81 174 165 154
2.75481 -1.05659 10.77 187 177 161
2.7589 -1.05365 10.74 200 190 174
2.76291 -1.0507 10.71 211 201 185
2.76946 -1.04874 10.69 218 208 192
2.77595 -1.04678 10.67 213 204 193
2.78763 -1.04678 10.67 213 204 193
2.79669 -1.0458 10.66 200 194 182
2.80836 -1.0458 10.66 193 187 175
2.82003 -1.0458 10.66 188 186 174
2.83169 -1.0458 10.66 207 205 193
2.84336 -1.0458 10.66 187 190 182
2.85771 -1.04678 10.67 178 181 173
2.87208 -1.04776 10.68 164 169 165
2.88377 -1.04776 10.68 182 187 183
2.89817 -1.04874 10.69 173 177 176
2.91259 -1.04972 10.7 166 170 169
2.92704 -1.0507 10.71 164 168 168
2.94151 -1.05168 10.72 189 193 193
2.95599 -1.05267 10.73 183 182 179
2.9705 -1.05365 10.74 180 179 176
2.98226 -1.05365 10.74 192 187 182
2.9968 -1.05463 10.75 191 186 181
3.01417 -1.05659 10.77 207 199 192
3.02877 -1.05757 10.78 167 159 152
3.04339 -1.05855 10.79 131 125 113
3.06086 -1.06051 10.81 121 115 103
3.07554 -1.06149 10.82 125 125 114
3.09023 -1.06248 10.83 122 122 111
3.10495 -1.06346 10.84 121 130 129
1.84396 -1.08457 11.18 172 171 163
1.8562 -1.08457 11.18 184 177 167
1.86844 -1.08457 11.18 189 182 172
1.87563 -1.08166 11.15 197 191 177
1.88614 -1.08069 11.14 197 191 177
1.89322 -1.07778 11.11 199 194 177
1.90024 -1.07487 11.08 202 197 180
1.90892 -1.07293 11.06 206 197 179
1.91581 -1.07002 11.03 210 201 183
1.92439 -1.06807 11.01 216 204 187
1.93116 -1.06516 10.98 216 204 187
1.94141 -1.06419 10.97 218 206 189
1.94986 -1.06225 10.95 224 212 195
1.95826 -1.06031 10.93 219 205 188
1.96842 -1.05934 10.92 218 204 187
1.97494 -1.05643 10.89 220 205 190
1.98138 -1.05352 10.86 218 203 188
1.9896 -1.05158 10.84 208 197 184
1.99592 -1.04867 10.81 200 189 176
2.00219 -1.04576 10.78 197 186 173
2.01025 -1.04382 10.76 196 185 172
2.01827 -1.04188 10.74 193 187 173
2.02435 -1.03897 10.71 193 187 173
2.03418 -1.038 10.7 195 189 177
2.04398 -1.03703 10.69 196 190 178
2.05375 -1.03606 10.68 198 192 180
2.06351 -1.03509 10.67 197 191 179
2.07519 -1.03509 10.67 196 190 178
2.08491 -1.03412 10.66 192 186 174
2.09658 -1.03412 10.66 191 185 173
2.11023 -1.03509 10.67 186 180 168
2.12191 -1.03509 10.67 192 186 172
2.13559 -1.03606 10.68 195 189 175
2.14929 -1.03703 10.69 195 189 175
2.16099 -1.03703 10.69 193 187 173
2.17675 -1.03897 10.71 192 186 172
2.19052 -1.03994 10.72 195 189 175
2.20636 -1.04188 10.74 195 189 175
2.22432 -1.04479 10.77 193 187 173
2.24233 -1.0477 10.8 191 185 171
2.25624 -1.04867 10.81 192 186 172
0 -0 0 192 186 172
2.28834 -1.05255 10.85 195 189 175
2.30446 -1.05449 10.87 194 190 178
2.31849 -1.05546 10.88 193 189 177
2.33468 -1.0574 10.9 191 189 177
2.35092 -1.05934 10.92 188 186 174
2.36287 -1.05934 10.92 185 183 171
2.37918 -1.06128 10.94 186 184 172
2.39334 -1.06225 10.95 186 184 172
2.40752 -1.06322 10.96 189 187 175
2.42614 -1.06613 10.99 189 186 176
2.44482 -1.06905 11.02 189 186 176
2.46357 -1.07196 11.05 191 188 178
2.47343 -1.07099 11.04 184 181 171
2.48551 -1.07099 11.04 185 182 172
2.50212 -1.07293 11.06 187 184 174
2.5165 -1.0739 11.07 189 186 176
2.5309 -1.07487 11.08 187 184 174
2.54303 -1.07487 11.08 186 183 173
2.55055 -1.07293 11.06 185 182 172
2.55802 -1.07099 11.04 186 183 173
2.56545 -1.06905 11.02 182 179 169
2.57517 -1.06807 11.01 182 179 169
2.58487 -1.0671 11 182 179 169
2.59219 -1.06516 10.98 186 183 173
2.59947 -1.06322 10.96 184 181 171
2.60432 -1.06031 10.93 184 181 171
2.61389 -1.05934 10.92 181 178 168
2.62344 -1.05837 10.91 181 178 168
2.63055 -1.05643 10.89 185 182 172
2.64004 -1.05546 10.88 185 182 172
2.65195 -1.05546 10.88 185 182 172
2.66386 -1.05546 10.88 185 182 172
2.67577 -1.05546 10.88 185 182 172
2.69015 -1.05643 10.89 186 183 173
2.70207 -1.05643 10.89 177 174 164
2.7115 -1.05546 10.88 189 183 171
2.7209 -1.05449 10.87 203 197 185
2.72777 -1.05255 10.85 202 196 184
2.73207 -1.04964 10.82 205 199 187
2.73631 -1.04673 10.79 192 182 173
2.74048 -1.04382 10.76 183 173 164
2.74458 -1.04091 10.73 196 185 172
2.74862 -1.038 10.7 204 193 180
2.75517 -1.03606 10.68 213 199 187
2.75909 -1.03315 10.65 213 199 187
2.76815 -1.03218 10.64 199 192 182
2.77979 -1.03218 10.64 207 200 190
2.79144 -1.03218 10.64 194 187 182
2.80309 -1.03218 10.64 188 181 176
2.81473 -1.03218 10.64 162 164 158
2.82638 -1.03218 10.64 166 168 162
2.83803 -1.03218 10.64 137 146 145
2.84967 -1.03218 10.64 125 134 133
2.8667 -1.03412 10.66 130 139 143
2.87837 -1.03412 10.66 129 138 142
2.89004 -1.03412 10.66 127 135 142
2.90443 -1.03509 10.67 133 141 148
2.91884 -1.03606 10.68 145 149 154
2.93053 -1.03606 10.68 150 154 159
2.94497 -1.03703 10.69 162 162 163
2.95668 -1.03703 10.69 171 171 172
2.96838 -1.03703 10.69 186 181 176
2.98008 -1.03703 10.69 195 190 185
2.99178 -1.03703 10.69 192 180 176
3.0091 -1.03897 10.71 152 140 136
3.02928 -1.04188 10.74 115 107 100
3.0467 -1.04382 10.76 99 91 84
3.06417 -1.04576 10.78 97 95 89
3.08167 -1.0477 10.8 100 98 92
3.09636 -1.04867 10.81 127 139 141
1.84396 -1.07232 11.18 180 176 169
1.8562 -1.07232 11.18 188 182 170
1.86677 -1.07136 11.17 198 192 180
1.87395 -1.06848 11.14 199 190 177
1.88275 -1.06657 11.12 201 192 179
1.89152 -1.06465 11.1 201 194 176
1.90024 -1.06273 11.08 202 195 177
1.90719 -1.05985 11.05 207 199 178
1.91407 -1.05697 11.02 210 202 181
1.92264 -1.05506 11 211 203 182
1.93116 -1.05314 10.98 211 203 182
1.93964 -1.05122 10.96 215 204 184
1.94986 -1.05026 10.95 213 202 182
1.95647 -1.04738 10.92 215 202 182
1.96482 -1.04546 10.9 218 205 185
1.97312 -1.04355 10.88 220 204 187
1.97956 -1.04067 10.85 223 207 190
1.98593 -1.03779 10.82 221 207 190
1.99223 -1.03491 10.79 213 199 182
1.99847 -1.03204 10.76 207 192 177
2.00651 -1.03012 10.74 199 184 169
2.01451 -1.0282 10.72 193 182 169
2.02246 -1.02628 10.7 196 185 172
2.03037 -1.02436 10.68 200 189 176
2.03824 -1.02245 10.66 204 193 180
2.04991 -1.02245 10.66 199 190 179
2.06158 -1.02245 10.66 195 186 175
2.0713 -1.02149 10.65 192 183 172
2.081 -1.02053 10.64 195 186 175
2.09265 -1.02053 10.64 195 186 173
2.10232 -1.01957 10.63 195 186 173
2.11395 -1.01957 10.63 195 186 173
2.12559 -1.01957 10.63 195 186 173
2.13923 -1.02053 10.64 195 189 175
2.15088 -1.02053 10.64 196 190 176
2.16253 -1.02053 10.64 196 190 176
2.17622 -1.02149 10.65 196 190 176
2.18993 -1.02245 10.66 195 189 175
2.20779 -1.02532 10.69 195 189 175
2.22365 -1.02724 10.71 196 190 176
2.24163 -1.03012 10.74 198 192 178
2.25549 -1.03108 10.75 195 189 175
2.26936 -1.03204 10.76 196 190 176
2.28326 -1.033 10.77 194 190 176
2.29718 -1.03395 10.78 193 189 175
2.31326 -1.03587 10.8 193 189 175
2.32724 -1.03683 10.81 191 187 173
2.33907 -1.03683 10.81 189 185 171
2.35308 -1.03779 10.82 189 185 171
0 -0 0 191 187 175
0 -0 0 191 187 175
0 -0 0 188 185 175
0 -0 0 191 188 178
2.43459 -1.04738 10.92 191 188 178
0 -0 0 193 190 180
0 -0 0 192 189 179
0 -0 0 188 185 175
2.48695 -1.0493 10.94 191 188 178
2.50121 -1.05026 10.95 188 185 175
2.51319 -1.05026 10.95 187 184 174
2.52287 -1.0493 10.94 186 183 173
2.53485 -1.0493 10.94 186 183 173
2.54217 -1.04738 10.92 186 183 173
2.55412 -1.04738 10.92 187 184 174
2.56137 -1.04546 10.9 187 184 174
2.57095 -1.04451 10.89 187 184 174
2.57812 -1.04259 10.87 186 183 173
0 -0 0 185 182 172
0 -0 0 184 181 171
0 -0 0 185 182 172
2.60639 -1.03491 10.79 187 184 174
2.6182 -1.03491 10.79 185 182 172
0 -0 0 185 182 172
0 -0 0 187 182 172
0 -0 0 186 181 171
2.66544 -1.03491 10.79 190 185 175
2.67974 -1.03587 10.8 194 189 179
2.69156 -1.03587 10.8 203 198 188
2.70088 -1.03491 10.79 208 203 193
2.70766 -1.033 10.77 196 189 179
2.7144 -1.03108 10.75 190 183 173
2.71856 -1.0282 10.72 177 167 158
2.72774 -1.02724 10.71 185 175 166
2.73435 -1.02532 10.69 193 181 172
2.73835 -1.02245 10.66 194 182 173
2.74486 -1.02053 10.64 195 183 174
2.75391 -1.01957 10.63 204 192 183
2.76034 -1.01765 10.61 184 177 172
2.77196 -1.01765 10.61 186 179 174
2.78357 -1.01765 10.61 151 149 150
2.79518 -1.01765 10.61 151 149 150
2.8068 -1.01765 10.61 133 141 143
2.90791 -1.02053 10.64 134 136 146
2.91955 -1.02053 10.64 127 129 139
2.9312 -1.02053 10.64 151 147 148
2.94285 -1.02053 10.64 170 166 167
2.95449 -1.02053 10.64 189 180 175
2.96614 -1.02053 10.64 198 189 184
2.97779 -1.02053 10.64 167 151 146
2.99505 -1.02245 10.66 124 108 103
3.01518 -1.02532 10.69 105 93 89
3.03821 -1.02916 10.73 106 94 90
3.05564 -1.03108 10.75 102 100 101
3.07597 -1.03395 10.78 112 110 111
3.0935 -1.03587 10.8 141 152 156
1.84396 -1.06007 11.18 189 182 177
1.85454 -1.05913 11.17 193 187 175
1.86342 -1.05723 11.15 193 187 175
1.87227 -1.05533 11.13 193 188 171
1.88106 -1.05344 11.11 195 190 173
1.88811 -1.05059 11.08 202 196 175
1.89509 -1.04775 11.05 202 196 175
1.90374 -1.04585 11.03 204 197 174
1.91234 -1.04395 11.01 208 201 178
1.92089 -1.04206 10.99 211 201 179
1.9294 -1.04016 10.97 212 202 180
1.93787 -1.03827 10.95 213 203 181
1.9463 -1.03637 10.93 212 202 180
1.95647 -1.03542 10.92 217 202 182
1.96482 -1.03352 10.9 220 205 185
1.97131 -1.03068 10.87 223 205 186
1.97773 -1.02784 10.84 224 206 187
1.98409 -1.02499 10.81 237 217 198
1.98854 -1.0212 10.77 237 217 198
1.99661 -1.0193 10.75 234 214 195
2.00278 -1.01646 10.72 223 203 184
2.01075 -1.01456 10.7 225 206 190
2.01868 -1.01266 10.68 208 189 173
2.02657 -1.01077 10.66 200 185 170
2.03633 -1.00982 10.65 208 193 178
2.04606 -1.00887 10.64 201 193 177
2.05771 -1.00887 10.64 200 192 176
2.06936 -1.00887 10.64 202 194 178
2.07709 -1.00698 10.62 195 187 171
2.08675 -1.00603 10.61 197 189 173
2.09836 -1.00603 10.61 197 189 173
2.106 -1.00413 10.59 197 189 173
2.11759 -1.00413 10.59 195 187 171
2.12918 -1.00413 10.59 198 189 176
2.14077 -1.00413 10.59 198 189 176
2.1544 -1.00508 10.6 196 190 176
2.166 -1.00508 10.6 196 190 176
2.1776 -1.00508 10.6 195 189 175
2.19127 -1.00603 10.61 195 189 175
2.20911 -1.00887 10.64 197 191 177
2.22285 -1.00982 10.65 196 190 176
2.2366 -1.01077 10.66 195 189 175
2.25038 -1.01172 10.67 195 189 175
2.26206 -1.01172 10.67 194 190 176
2.278 -1.01361 10.69 193 189 175
2.2897 -1.01361 10.69 193 189 175
2.30571 -1.01551 10.71 193 189 175
2.31743 -1.01551 10.71 191 187 173
2.32916 -1.01551 10.71 190 186 172
0 -0 0 193 189 177
0 -0 0 190 186 174
2.37095 -1.01835 10.74 187 182 172
2.38714 -1.02025 10.76 188 183 173
0 -0 0 191 186 176
2.41294 -1.0212 10.77 195 190 180
0 -0 0 191 188 178
0 -0 0 191 188 178
0 -0 0 191 188 178
2.47151 -1.02594 10.82 187 184 174
2.48565 -1.02689 10.83 187 184 174
2.4952 -1.02594 10.82 186 183 173
2.50705 -1.02594 10.82 186 183 173
2.51656 -1.02499 10.81 188 185 175
2.53073 -1.02594 10.82 188 185 175
2.53788 -1.02404 10.8 187 184 174
0 -0 0 188 185 175
2.55203 -1.02025 10.76 186 183 173
2.55904 -1.01835 10.74 186 183 173
2.56841 -1.01741 10.73 186 183 173
2.57534 -1.01551 10.71 188 185 175
2.58465 -1.01456 10.7 188 185 175
2.59394 -1.01361 10.69 189 184 174
2.60564 -1.01361 10.69 187 182 172
0 -0 0 184 179 169
2.6315 -1.01456 10.7 190 185 175
2.64568 -1.01551 10.71 205 200 190
2.65741 -1.01551 10.71 202 197 187
2.66913 -1.01551 10.71 201 196 186
0 -0 0 202 197 187
2.69006 -1.01456 10.7 201 194 189
2.69925 -1.01361 10.69 193 186 181
2.70588 -1.01172 10.67 185 176 171
2.71246 -1.00982 10.65 184 175 170
2.72156 -1.00887 10.64 184 172 168
2.72807 -1.00698 10.62 181 169 165
2.73712 -1.00603 10.61 183 172 166
2.74614 -1.00508 10.6 187 176 170
2.75514 -1.00413 10.59 159 152 153
2.76673 -1.00413 10.59 143 136 137
2.92294 -1.00603 10.61 184 176 181
2.93455 -1.00603 10.61 187 179 184
2.94616 -1.00603 10.61 183 175 173
2.95778 -1.00603 10.61 155 147 145
2.96939 -1.00603 10.61 122 108 104
2.98662 -1.00792 10.63 103 89 85
3.00672 -1.01077 10.66 112 98 100
3.02688 -1.01361 10.69 113 99 101
3.04995 -1.01741 10.73 98 94 95
3.07026 -1.02025 10.76 114 110 111
3.09063 -1.02309 10.79 130 139 143
1.83173 -1.04783 11.18 177 169 162
1.84231 -1.04689 11.17 192 184 177
1.85122 -1.04502 11.15 192 186 172
1.86008 -1.04314 11.13 193 187 173
1.8689 -1.04127 11.11 194 187 169
1.87598 -1.03846 11.08 193 186 168
1.8847 -1.03658 11.06 200 192 171
1.89166 -1.03377 11.03 202 194 173
1.90029 -1.0319 11.01 203 196 173
1.90886 -1.03002 10.99 209 202 179
1.9174 -1.02815 10.97 209 202 179
1.92589 -1.02627 10.95 209 202 179
1.9361 -1.02533 10.94 212 202 180
1.94452 -1.02346 10.92 215 205 183
1.95289 -1.02159 10.9 217 203 181
1.96121 -1.01971 10.88 219 205 183
1.96768 -1.0169 10.85 224 204 185
1.97226 -1.01315 10.81 226 206 187
1.98042 -1.01128 10.79 243 218 200
1.98669 -1.00846 10.76 246 221 203
1.99476 -1.00659 10.74 255 233 213
2.00091 -1.00378 10.71 252 230 210
2.00887 -1.0019 10.69 255 237 217
2.01679 -1.00003 10.67 243 221 201
2.02467 -0.998155 10.65 225 204 188
2.03442 -0.997217 10.64 218 197 181
2.04606 -0.997217 10.64 209 190 174
2.05577 -0.99628 10.63 212 193 177
2.06741 -0.99628 10.63 204 192 175
2.07513 -0.994406 10.61 208 196 179
2.08675 -0.994406 10.61 203 190 175
2.09441 -0.992531 10.59 195 182 167
2.10401 -0.991594 10.58 193 183 167
2.11359 -0.990657 10.57 202 192 176
2.12516 -0.990657 10.57 206 196 180
2.13673 -0.990657 10.57 201 191 175
2.1483 -0.990657 10.57 199 190 177
2.15783 -0.98972 10.56 200 191 178
2.16733 -0.988782 10.55 198 189 176
2.18095 -0.98972 10.56 198 189 176
2.19458 -0.990657 10.57 198 189 176
2.20824 -0.991594 10.58 197 188 175
2.21982 -0.991594 10.58 193 187 173
2.2314 -0.991594 10.58 192 186 172
2.2451 -0.992531 10.59 195 189 175
2.25669 -0.992531 10.59 195 189 175
2.27257 -0.994406 10.61 193 187 173
2.28418 -0.994406 10.61 191 185 171
2.2958 -0.994406 10.61 195 189 177
2.30741 -0.994406 10.61 197 191 179
2.31902 -0.994406 10.61 197 191 179
2.33064 -0.994406 10.61 195 189 177
2.34446 -0.995343 10.62 190 185 175
2.3583 -0.99628 10.63 191 186 176
2.36994 -0.99628 10.63 191 185 178
2.38381 -0.997217 10.64 191 185 178
0 -0 0 193 187 180
0 -0 0 191 185 178
0 -0 0 190 184 177
2.4441 -1.00284 10.7 189 183 176
2.45811 -1.00378 10.71 189 183 176
2.46983 -1.00378 10.71 188 182 175
2.48156 -1.00378 10.71 189 184 174
0 -0 0 190 185 175
2.50734 -1.00472 10.72 188 185 175
2.51673 -1.00378 10.71 188 185 175
2.52373 -1.0019 10.69 187 184 174
2.53069 -1.00003 10.67 186 183 173
2.5376 -0.998155 10.65 188 185 175
2.54686 -0.997217 10.64 188 185 175
2.5537 -0.995343 10.62 191 186 176
2.56291 -0.994406 10.61 191 186 176
2.5721 -0.993468 10.6 188 183 173
2.5837 -0.993468 10.6 194 189 179
2.59775 -0.994406 10.61 200 195 185
2.60937 -0.994406 10.61 202 197 187
2.62345 -0.995343 10.62 200 195 185
2.64004 -0.997217 10.64 200 195 185
2.65168 -0.997217 10.64 196 191 181
2.66083 -0.99628 10.63 188 183 173
2.67246 -0.99628 10.63 195 187 180
2.68157 -0.995343 10.62 192 184 177
2.69066 -0.994406 10.61 184 175 170
2.69973 -0.993468 10.6 182 173 168
2.70877 -0.992531 10.59 183 171 167
2.72036 -0.992531 10.59 178 166 162
2.72938 -0.991594 10.58 161 151 149
2.74096 -0.991594 10.58 152 142 140
2.74994 -0.990657 10.57 144 139 143
2.92902 -0.992531 10.59 178 168 178
2.93783 -0.991594 10.58 173 164 166
2.94941 -0.991594 10.58 166 157 159
2.96379 -0.992531 10.59 135 124 126
2.981 -0.994406 10.61 106 95 97
3.00108 -0.997217 10.64 98 89 91
3.02122 -1.00003 10.67 91 82 84
3.04427 -1.00378 10.71 94 90 91
3.06741 -1.00753 10.75 105 101 102
3.09063 -1.01128 10.79 128 132 137
1.83009 -1.03466 11.17 192 185 175
1.83902 -1.0328 11.15 188 181 171
1.84956 -1.03188 11.14 192 183 170
1.85674 -1.0291 11.11 195 186 173
1.86385 -1.02632 11.08 196 188 167
1.8726 -1.02447 11.06 196 188 167
1.88129 -1.02261 11.04 197 190 167
1.88823 -1.01984 11.01 200 193 170
1.89683 -1.01798 10.99 203 196 173
1.90713 -1.01706 10.98 206 199 176
1.9139 -1.01428 10.95 208 201 178
1.92413 -1.01335 10.94 206 199 176
1.93256 -1.0115 10.92 211 201 179
1.94096 -1.00965 10.9 215 205 183
1.95109 -1.00872 10.89 221 207 185
1.95941 -1.00687 10.87 220 206 184
1.96587 -1.00409 10.84 226 204 184
1.97044 -1.00038 10.8 223 201 181
1.97675 -0.997604 10.77 236 209 191
1.98485 -0.995752 10.75 251 224 206
1.99104 -0.992973 10.72 255 233 211
1.99904 -0.99112 10.7 255 244 222
2.00699 -0.989268 10.68 255 245 220
2.0149 -0.987415 10.66 255 237 212
2.02467 -0.986489 10.65 244 218 198
2.03442 -0.985563 10.64 245 219 199
2.04606 -0.985563 10.64 242 217 199
2.05577 -0.984636 10.63 235 210 192
2.06741 -0.984636 10.63 222 204 185
2.07513 -0.982784 10.61 224 206 187
2.08478 -0.981858 10.6 216 201 181
2.09441 -0.980931 10.59 215 200 180
2.10401 -0.980005 10.58 212 198 181
2.11359 -0.979079 10.57 207 193 176
2.12516 -0.979079 10.57 203 189 172
2.13471 -0.978152 10.56 203 189 172
2.1422 -0.9763 10.54 202 188 176
2.15374 -0.9763 10.54 204 190 178
2.16322 -0.975374 10.53 201 190 177
2.17268 -0.974447 10.52 201 190 177
2.1842 -0.974447 10.52 198 189 176
2.19571 -0.974447 10.52 197 188 175
2.20723 -0.974447 10.52 195 186 173
2.21874 -0.974447 10.52 194 185 172
2.23026 -0.974447 10.52 195 186 173
2.24178 -0.974447 10.52 198 189 176
2.25329 -0.974447 10.52 190 184 170
2.26481 -0.974447 10.52 192 186 172
2.27632 -0.974447 10.52 193 187 175
2.28566 -0.973521 10.51 193 187 175
2.29717 -0.973521 10.51 195 188 178
2.30867 -0.973521 10.51 195 188 178
2.32017 -0.973521 10.51 189 183 176
2.33168 -0.973521 10.51 189 183 176
2.34318 -0.973521 10.51 195 189 182
2.35693 -0.974447 10.52 193 187 180
2.37295 -0.9763 10.54 191 185 178
2.38674 -0.977226 10.55 190 184 177
2.40511 -0.980005 10.58 190 184 177
2.41898 -0.980931 10.59 194 188 181
2.43516 -0.982784 10.61 191 183 176
2.44677 -0.982784 10.61 191 183 176
2.4607 -0.98371 10.62 192 185 175
2.47466 -0.984636 10.63 192 185 175
2.48863 -0.985563 10.64 191 184 174
2.49558 -0.98371 10.62 192 185 175
2.50484 -0.982784 10.61 184 179 169
2.51171 -0.980931 10.59 184 179 169
2.51854 -0.979079 10.57 188 183 173
2.52532 -0.977226 10.55 183 178 168
2.53446 -0.9763 10.54 183 178 168
2.54359 -0.975374 10.53 194 189 179
2.55269 -0.974447 10.52 197 192 182
2.5642 -0.974447 10.52 210 205 195
2.57816 -0.975374 10.53 204 199 189
2.59215 -0.9763 10.54 201 196 186
2.60369 -0.9763 10.54 198 193 183
2.62019 -0.978152 10.56 196 191 181
2.63424 -0.979079 10.57 194 189 179
2.6433 -0.978152 10.56 188 183 173
2.65738 -0.979079 10.57 190 182 175
2.66895 -0.979079 10.57 183 175 168
2.67798 -0.978152 10.56 182 174 167
2.68954 -0.978152 10.56 181 173 166
2.69854 -0.977226 10.55 183 171 167
2.71009 -0.977226 10.55 178 166 162
2.72164 -0.977226 10.55 171 161 159
2.73319 -0.977226 10.55 150 140 138
2.92072 -0.978152 10.56 141 135 146
2.93228 -0.978152 10.56 144 137 146
2.93826 -0.9763 10.54 179 172 181
2.9526 -0.977226 10.55 177 168 175
2.96977 -0.979079 10.57 132 123 130
2.99262 -0.982784 10.61 95 88 89
3.01839 -0.987415 10.66 107 100 101
3.04427 -0.992047 10.71 159 155 155
3.06741 -0.995752 10.75 158 154 154
3.09063 -0.999457 10.79 168 167 171
1.81623 -1.0215 11.16 167 159 157
1.82681 -1.02059 11.15 185 178 168
1.83737 -1.01967 11.14 191 184 174
1.84458 -1.01693 11.11 191 186 169
1.85507 -1.01601 11.1 192 187 170
1.86217 -1.01327 11.07 193 187 166
1.86921 -1.01052 11.04 194 188 167
1.87789 -1.00869 11.02 197 190 167
1.88652 -1.00686 11 199 192 169
1.89511 -1.00503 10.98 203 196 173
1.90365 -1.0032 10.96 206 199 176
1.9139 -1.00228 10.95 206 199 176
1.92237 -1.00045 10.93 206 199 176
1.93256 -0.999537 10.92 211 201 179
1.94096 -0.997707 10.9 215 205 183
1.9493 -0.995876 10.88 220 206 184
1.9558 -0.99313 10.85 220 206 184
1.96224 -0.990384 10.82 224 205 184
1.96861 -0.987638 10.79 221 202 181
1.97492 -0.984892 10.76 235 211 191
1.983 -0.983061 10.74 251 227 207
1.98918 -0.980315 10.71 255 236 211
1.99717 -0.978485 10.69 255 252 227
2.00699 -0.977569 10.68 255 250 225
2.0149 -0.975739 10.66 255 231 206
2.02467 -0.974823 10.65 245 214 193
2.03442 -0.973908 10.64 248 217 196
2.04606 -0.973908 10.64 243 214 195
2.05771 -0.973908 10.64 241 212 193
2.06741 -0.972993 10.63 236 209 191
2.07513 -0.971162 10.61 234 207 189
2.08675 -0.971162 10.61 221 198 180
2.09441 -0.969331 10.59 233 210 192
2.10401 -0.968416 10.58 230 207 189
2.11359 -0.967501 10.57 226 203 185
2.12315 -0.966585 10.56 223 204 188
2.13471 -0.966585 10.56 219 200 184
2.1422 -0.964755 10.54 217 197 183
2.15374 -0.964755 10.54 212 192 178
2.16117 -0.962924 10.52 208 191 176
2.17268 -0.962924 10.52 207 190 175
2.18212 -0.962009 10.51 198 184 172
2.19154 -0.961093 10.5 195 181 169
2.20303 -0.961093 10.5 193 182 169
2.21031 -0.959263 10.48 194 183 170
2.22178 -0.959263 10.48 197 186 173
2.23325 -0.959263 10.48 201 190 177
2.24258 -0.958347 10.47 199 190 179
2.25189 -0.957432 10.46 198 189 178
2.26334 -0.957432 10.46 195 189 177
2.27261 -0.956517 10.45 193 187 175
2.28187 -0.955602 10.44 191 185 173
2.29329 -0.955602 10.44 191 185 173
2.30251 -0.954686 10.43 192 185 175
2.31171 -0.953771 10.42 197 190 180
2.32312 -0.953771 10.42 197 190 180
2.33676 -0.954686 10.43 196 189 179
2.35043 -0.955602 10.44 195 188 178
2.36638 -0.957432 10.46 195 188 178
2.38238 -0.959263 10.48 201 191 182
2.39842 -0.961093 10.5 199 189 180
2.41221 -0.962009 10.51 193 183 174
2.42602 -0.962924 10.52 188 178 169
2.44217 -0.964755 10.54 190 178 169
2.45603 -0.96567 10.55 192 180 171
2.46758 -0.96567 10.55 195 183 174
2.47678 -0.964755 10.54 197 185 176
2.48359 -0.962924 10.52 204 197 187
2.49274 -0.962009 10.51 206 199 189
2.50186 -0.961093 10.5 210 205 195
2.50857 -0.959263 10.48 201 196 186
2.51763 -0.958347 10.47 215 210 200
2.52668 -0.957432 10.46 210 205 195
2.53813 -0.957432 10.46 207 202 192
2.54958 -0.957432 10.46 200 195 185
2.56347 -0.958347 10.47 203 196 186
2.57493 -0.958347 10.47 204 197 187
2.58887 -0.959263 10.48 198 191 181
2.6053 -0.961093 10.5 196 189 179
2.61679 -0.961093 10.5 197 190 180
2.63079 -0.962009 10.51 193 186 176
2.64481 -0.962924 10.52 191 183 176
2.65632 -0.962924 10.52 191 183 176
2.66784 -0.962924 10.52 190 182 175
2.67935 -0.962924 10.52 192 184 177
2.69087 -0.962924 10.52 184 175 170
2.70238 -0.962924 10.52 177 168 163
2.7139 -0.962924 10.52 174 165 166
2.72541 -0.962924 10.52 152 143 144
2.92117 -0.962924 10.52 120 114 127
2.9299 -0.962009 10.51 147 141 154
2.9414 -0.962009 10.51 169 163 169
2.95853 -0.963839 10.53 148 142 148
2.98698 -0.969331 10.59 132 128 128
3.01839 -0.975739 10.66 154 150 150
3.04427 -0.980315 10.71 166 163 160
0 -0 0 183 180 177
3.09636 -0.989469 10.81 173 172 176
1.81298 -1.00747 11.14 177 167 165
1.82353 -1.00657 11.13 191 184 174
1.83407 -1.00566 11.12 192 185 175
1.84292 -1.00385 11.1 188 185 168
1.85173 -1.00205 11.08 189 186 169
