ply
format ascii 1.0
comment Created by Open3D
element vertex 1426
property double x
property double y
property double z
property uchar red
property uchar green
property uchar blue
end_header
1.33613 -2.04205 10.93 203 192 179
1.34686 -2.04018 10.92 201 190 177
1.36006 -2.04205 10.93 201 192 179
1.37077 -2.04018 10.92 202 193 180
1.38146 -2.03831 10.91 202 193 180
1.39212 -2.03644 10.9 202 193 180
1.40277 -2.03457 10.89 204 195 182
1.41339 -2.0327 10.88 204 195 182
1.42661 -2.03457 10.89 202 196 182
1.43721 -2.0327 10.88 203 197 183
1.44778 -2.03084 10.87 203 197 185
1.45968 -2.03084 10.87 203 197 185
1.47023 -2.02897 10.86 202 196 184
1.48211 -2.02897 10.86 200 194 182
1.494 -2.02897 10.86 199 192 182
1.50311 -2.02523 10.84 202 195 185
1.51498 -2.02523 10.84 203 196 186
1.52403 -2.02149 10.82 200 193 183
1.53445 -2.01963 10.81 198 191 181
1.54485 -2.01776 10.8 200 193 183
1.55523 -2.01589 10.79 202 195 185
1.56705 -2.01589 10.79 204 197 187
1.57739 -2.01402 10.78 200 195 185
1.58772 -2.01215 10.77 197 192 182
1.59802 -2.01029 10.76 191 186 176
1.6098 -2.01029 10.76 197 192 182
1.62158 -2.01029 10.76 196 191 181
1.63336 -2.01029 10.76 197 192 182
1.64513 -2.01029 10.76 198 193 183
1.65691 -2.01029 10.76 197 192 182
1.66869 -2.01029 10.76 198 192 185
1.68047 -2.01029 10.76 195 189 182
1.69225 -2.01029 10.76 193 187 180
1.70561 -2.01215 10.77 194 188 181
1.7174 -2.01215 10.77 193 189 182
1.72918 -2.01215 10.77 194 190 183
1.74421 -2.01589 10.79 193 189 182
1.75602 -2.01589 10.79 193 189 182
1.7711 -2.01963 10.81 192 188 181
1.78624 -2.02336 10.83 187 183 176
1.79975 -2.02523 10.84 187 183 176
1.81663 -2.03084 10.87 188 184 177
1.83189 -2.03457 10.89 184 183 175
1.84551 -2.03644 10.9 183 182 174
1.86085 -2.04018 10.92 184 183 175
1.8728 -2.04018 10.92 183 182 174
1.8882 -2.04391 10.94 183 184 176
1.90018 -2.04391 10.94 183 184 176
1.91215 -2.04391 10.94 184 185 177
1.92237 -2.04205 10.93 183 184 176
1.93787 -2.04578 10.95 180 182 176
1.94986 -2.04578 10.95 176 178 172
1.96364 -2.04765 10.96 174 175 172
1.97744 -2.04952 10.97 176 177 174
1.99126 -2.05139 10.98 181 181 181
2.00328 -2.05139 10.98 195 195 195
2.01897 -2.05512 11 201 199 199
2.03285 -2.05699 11.01 189 187 187
2.04862 -2.06073 11.03 189 187 187
0 -0 0 178 171 173
0 -0 0 181 174 176
0 -0 0 183 176 171
0 -0 0 184 177 172
0 -0 0 188 181 171
1.0109 -2.07465 11.17 189 182 172
1.02404 -2.07651 11.18 189 182 172
1.03628 -2.07651 11.18 190 183 173
1.04946 -2.07836 11.19 190 183 173
1.0617 -2.07836 11.19 188 181 171
1.07395 -2.07836 11.19 189 182 172
1.08523 -2.07651 11.18 191 184 174
1.0955 -2.07279 11.16 190 183 173
1.10574 -2.06908 11.14 190 183 173
1.11693 -2.06722 11.13 190 183 173
1.12708 -2.06351 11.11 191 184 174
1.13719 -2.05979 11.09 192 185 175
1.14622 -2.05422 11.06 193 186 176
1.15623 -2.0505 11.04 193 186 176
1.16726 -2.04865 11.03 191 184 174
1.17719 -2.04493 11.01 192 185 175
1.18924 -2.04493 11.01 191 184 174
1.2013 -2.04493 11.01 192 185 175
1.21224 -2.04308 11 192 185 175
1.22206 -2.03936 10.98 193 186 176
1.23408 -2.03936 10.98 195 188 178
1.24383 -2.03565 10.96 195 188 178
1.25468 -2.03379 10.95 193 186 176
1.26666 -2.03379 10.95 193 186 176
1.27748 -2.03193 10.94 196 189 179
1.28828 -2.03007 10.93 199 189 180
1.30024 -2.03007 10.93 200 190 181
1.31101 -2.02822 10.92 201 190 179
1.32296 -2.02822 10.92 199 188 177
1.33613 -2.03007 10.93 199 188 177
1.34686 -2.02822 10.92 194 183 172
1.35882 -2.02822 10.92 193 182 171
1.37077 -2.02822 10.92 201 190 179
1.38146 -2.02636 10.91 199 190 179
1.39212 -2.0245 10.9 200 191 180
1.40277 -2.02264 10.89 200 191 180
1.41339 -2.02079 10.88 201 192 181
1.4253 -2.02079 10.88 200 194 182
1.43588 -2.01893 10.87 202 196 184
1.44778 -2.01893 10.87 200 194 182
1.45834 -2.01707 10.86 200 194 182
1.46752 -2.01336 10.84 200 194 182
1.47938 -2.01336 10.84 199 193 181
1.49125 -2.01336 10.84 199 192 182
1.50173 -2.0115 10.83 198 191 181
1.51079 -2.00779 10.81 199 192 182
1.52262 -2.00779 10.81 200 193 183
1.53161 -2.00407 10.79 197 190 180
1.54342 -2.00407 10.79 198 191 181
1.55379 -2.00221 10.78 197 190 180
1.56414 -2.00036 10.77 197 190 180
1.57447 -1.9985 10.76 197 190 180
1.58624 -1.9985 10.76 197 190 180
1.59802 -1.9985 10.76 191 186 176
1.6098 -1.9985 10.76 196 191 181
1.62158 -1.9985 10.76 196 191 181
1.63336 -1.9985 10.76 196 191 181
1.64513 -1.9985 10.76 197 192 182
1.65691 -1.9985 10.76 194 189 179
1.66869 -1.9985 10.76 187 180 175
1.68047 -1.9985 10.76 194 187 182
1.69225 -1.9985 10.76 194 187 182
1.70402 -1.9985 10.76 193 186 181
1.7158 -1.9985 10.76 192 187 182
1.73079 -2.00221 10.78 191 186 181
1.74259 -2.00221 10.78 189 184 179
1.75602 -2.00407 10.79 189 184 179
1.76947 -2.00593 10.8 186 181 176
1.78294 -2.00779 10.81 186 181 176
1.79809 -2.0115 10.83 184 183 175
1.81162 -2.01336 10.84 186 185 177
1.82685 -2.01707 10.86 183 182 174
1.84043 -2.01893 10.87 183 182 174
1.85403 -2.02079 10.88 183 181 175
1.86937 -2.0245 10.9 183 181 175
1.8813 -2.0245 10.9 178 178 172
1.89323 -2.0245 10.9 171 171 165
1.90516 -2.0245 10.9 185 185 179
1.91885 -2.02636 10.91 183 183 177
1.93256 -2.02822 10.92 178 180 174
1.94452 -2.02822 10.92 178 180 174
1.96184 -2.03379 10.95 176 177 174
1.97383 -2.03379 10.95 180 181 178
1.99126 -2.03936 10.98 181 181 181
2.00328 -2.03936 10.98 187 187 187
2.01713 -2.04122 10.99 196 194 194
2.03285 -2.04493 11.01 188 186 186
2.04676 -2.04679 11.02 188 186 186
2.06256 -2.0505 11.04 188 186 186
2.07464 -2.0505 11.04 189 187 187
2.1428 -2.05793 11.08 198 196 190
2.15493 -2.05793 11.08 200 196 189
2.16706 -2.05793 11.08 201 197 190
2.17919 -2.05793 11.08 201 197 190
2.19329 -2.05979 11.09 202 198 191
2.20742 -2.06165 11.1 204 198 191
2.22157 -2.06351 11.11 205 199 192
2.23373 -2.06351 11.11 205 199 192
2.24589 -2.06351 11.11 205 199 192
2.25805 -2.06351 11.11 209 203 196
2.27021 -2.06351 11.11 208 202 195
2.28238 -2.06351 11.11 206 198 191
2.29454 -2.06351 11.11 209 201 194
2.3067 -2.06351 11.11 210 203 193
2.31886 -2.06351 11.11 210 203 193
0 -0 0 171 164 165
0 -0 0 187 180 181
0 -0 0 183 177 170
0 -0 0 190 184 177
0 -0 0 188 183 173
1.0118 -2.06426 11.18 186 181 171
1.02404 -2.06426 11.18 188 183 173
1.03628 -2.06426 11.18 188 183 173
1.05039 -2.06795 11.2 188 183 173
1.06075 -2.06426 11.18 188 183 173
1.07299 -2.06426 11.18 188 183 173
1.08523 -2.06426 11.18 189 184 174
1.0955 -2.06057 11.16 188 183 173
1.10574 -2.05688 11.14 188 183 173
1.11592 -2.05318 11.12 188 183 173
1.12708 -2.05134 11.11 188 183 173
1.13616 -2.0458 11.08 191 184 174
1.14622 -2.0421 11.06 192 185 175
1.15623 -2.03841 11.04 191 184 174
1.16832 -2.03841 11.04 191 184 174
1.17933 -2.03657 11.03 192 185 175
1.19032 -2.03472 11.02 192 185 175
1.2013 -2.03287 11.01 190 183 173
1.21335 -2.03287 11.01 192 185 175
1.22429 -2.03103 11 192 185 175
1.23408 -2.02733 10.98 193 186 176
1.2461 -2.02733 10.98 195 188 178
1.25582 -2.02364 10.96 195 188 178
1.26666 -2.02179 10.95 195 188 178
1.27748 -2.01995 10.94 195 188 178
1.28828 -2.0181 10.93 196 189 179
1.30024 -2.0181 10.93 196 189 179
1.31101 -2.01626 10.92 197 185 176
1.32296 -2.01626 10.92 196 184 175
1.33491 -2.01626 10.92 199 187 178
1.34686 -2.01626 10.92 195 183 174
1.35882 -2.01626 10.92 194 182 173
1.37077 -2.01626 10.92 194 182 173
1.38272 -2.01626 10.92 199 189 180
1.3934 -2.01441 10.91 199 189 180
1.40405 -2.01256 10.9 198 188 179
1.41339 -2.00887 10.88 199 189 180
1.4253 -2.00887 10.88 200 190 181
1.43588 -2.00702 10.87 202 192 183
1.44645 -2.00518 10.86 198 191 181
1.45565 -2.00148 10.84 199 192 182
1.46752 -2.00148 10.84 202 195 185
1.47802 -1.99964 10.83 198 191 181
1.4885 -1.99779 10.82 196 189 179
1.49895 -1.99594 10.81 196 189 179
1.51079 -1.99594 10.81 196 189 179
1.52121 -1.9941 10.8 196 189 179
1.53161 -1.99225 10.79 195 188 178
1.54199 -1.99041 10.78 196 189 179
1.55379 -1.99041 10.78 196 189 179
1.56414 -1.98856 10.77 197 190 180
1.57447 -1.98671 10.76 193 186 176
1.58624 -1.98671 10.76 195 188 178
1.59654 -1.98487 10.75 194 189 179
1.6083 -1.98487 10.75 197 192 182
1.62007 -1.98487 10.75 197 192 182
1.63184 -1.98487 10.75 197 192 182
1.6436 -1.98487 10.75 195 190 180
1.65537 -1.98487 10.75 193 188 178
1.66714 -1.98487 10.75 190 183 178
1.68047 -1.98671 10.76 193 186 181
1.69225 -1.98671 10.76 193 185 183
1.70402 -1.98671 10.76 190 182 180
1.7174 -1.98856 10.77 188 182 180
1.72918 -1.98856 10.77 189 183 181
1.74421 -1.99225 10.79 188 182 180
1.75602 -1.99225 10.79 187 181 179
1.76783 -1.99225 10.79 185 182 179
1.78129 -1.9941 10.8 185 182 179
1.79477 -1.99594 10.81 185 183 177
1.80995 -1.99964 10.83 184 182 176
1.82348 -2.00148 10.84 183 181 175
1.83704 -2.00333 10.85 182 180 174
1.85233 -2.00702 10.87 180 180 174
1.86422 -2.00702 10.87 180 180 174
1.87785 -2.00887 10.88 177 177 171
1.88976 -2.00887 10.88 168 168 162
1.90341 -2.01072 10.89 175 175 169
1.91533 -2.01072 10.89 177 177 171
1.92902 -2.01256 10.9 176 177 174
1.94274 -2.01441 10.91 179 180 177
1.95647 -2.01626 10.92 176 177 174
1.97203 -2.01995 10.94 181 182 179
1.98763 -2.02364 10.96 183 183 183
2.00145 -2.02549 10.97 187 187 187
2.01529 -2.02733 10.98 188 188 188
2.03101 -2.03103 11 185 185 185
2.0449 -2.03287 11.01 188 186 186
2.06069 -2.03657 11.03 190 188 188
2.07464 -2.03841 11.04 192 190 190
2.08673 -2.03841 11.04 191 189 189
2.10071 -2.04026 11.05 191 188 185
2.11472 -2.0421 11.06 193 190 187
2.12875 -2.04395 11.07 200 198 192
2.1428 -2.0458 11.08 199 197 191
2.15493 -2.0458 11.08 203 198 188
2.16706 -2.0458 11.08 203 198 188
2.18115 -2.04764 11.09 203 199 187
2.19329 -2.04764 11.09 204 200 188
2.20941 -2.05134 11.11 205 200 190
2.22157 -2.05134 11.11 205 200 190
2.23373 -2.05134 11.11 207 202 192
2.24791 -2.05318 11.12 205 200 190
2.26009 -2.05318 11.12 207 200 190
2.2743 -2.05503 11.13 205 198 188
2.28443 -2.05318 11.12 204 197 187
2.2966 -2.05318 11.12 206 199 189
2.30877 -2.05318 11.12 205 198 188
2.31886 -2.05134 11.11 203 196 186
2.33102 -2.05134 11.11 200 193 183
2.34318 -2.05134 11.11 203 196 186
2.35534 -2.05134 11.11 204 196 194
2.3675 -2.05134 11.11 202 194 192
0 -0 0 184 178 176
0 -0 0 189 183 181
0 -0 0 186 178 171
0 -0 0 190 182 175
0 -0 0 189 182 172
0 -0 0 186 179 169
1.02404 -2.05201 11.18 189 182 172
1.03628 -2.05201 11.18 189 182 172
1.05039 -2.05569 11.2 189 182 172
1.0617 -2.05385 11.19 189 182 172
1.07299 -2.05201 11.18 191 184 174
1.08426 -2.05018 11.17 191 184 174
1.09452 -2.04651 11.15 191 184 174
1.10574 -2.04467 11.14 192 185 175
1.11492 -2.03917 11.11 192 185 175
1.12606 -2.03733 11.1 191 184 174
1.13616 -2.03366 11.08 190 183 173
1.14726 -2.03183 11.07 191 184 174
1.15728 -2.02815 11.05 188 181 171
1.16832 -2.02632 11.04 186 179 169
1.1804 -2.02632 11.04 185 178 168
1.1914 -2.02448 11.03 190 183 173
1.20348 -2.02448 11.03 189 181 174
1.21445 -2.02265 11.02 191 183 176
1.2254 -2.02081 11.01 192 184 177
1.23633 -2.01898 11 192 184 177
1.2461 -2.01531 10.98 195 188 178
1.25697 -2.01347 10.97 195 188 178
1.26666 -2.0098 10.95 195 188 178
1.27865 -2.0098 10.95 193 186 176
1.28946 -2.00796 10.94 195 188 178
1.30024 -2.00613 10.93 193 186 176
1.31221 -2.00613 10.93 194 184 175
1.32417 -2.00613 10.93 194 184 175
1.33491 -2.00429 10.92 197 185 176
1.34686 -2.00429 10.92 199 187 178
1.36006 -2.00613 10.93 196 184 175
1.37203 -2.00613 10.93 193 181 172
1.38272 -2.00429 10.92 198 188 179
1.39468 -2.00429 10.92 200 190 181
1.40405 -2.00062 10.9 199 189 180
1.41469 -1.99879 10.89 199 189 180
1.4253 -1.99695 10.88 199 189 180
1.43588 -1.99512 10.87 199 189 180
1.44645 -1.99328 10.86 196 189 179
1.45565 -1.98961 10.84 198 191 181
1.46616 -1.98777 10.83 198 191 181
1.47529 -1.9841 10.81 185 178 168
1.48712 -1.9841 10.81 186 179 169
1.49895 -1.9841 10.81 197 190 180
1.50799 -1.98043 10.79 196 189 179
1.5198 -1.98043 10.79 196 189 179
1.53161 -1.98043 10.79 196 189 179
1.54199 -1.9786 10.78 196 189 179
1.55235 -1.97676 10.77 193 186 176
1.56269 -1.97493 10.76 193 186 176
1.57447 -1.97493 10.76 193 186 176
1.58624 -1.97493 10.76 195 188 178
1.59802 -1.97493 10.76 194 189 179
1.6083 -1.97309 10.75 194 189 179
1.62007 -1.97309 10.75 193 188 178
1.63184 -1.97309 10.75 194 189 179
1.6436 -1.97309 10.75 193 188 178
1.65537 -1.97309 10.75 191 186 176
1.66714 -1.97309 10.75 191 185 178
1.67891 -1.97309 10.75 194 188 181
1.69225 -1.97493 10.76 191 183 181
1.70402 -1.97493 10.76 189 181 179
1.7174 -1.97676 10.77 185 179 177
1.72918 -1.97676 10.77 187 181 179
1.74259 -1.9786 10.78 187 180 181
1.75602 -1.98043 10.79 187 180 181
1.76947 -1.98227 10.8 185 181 181
1.78294 -1.9841 10.81 184 180 180
1.79477 -1.9841 10.81 184 181 178
1.80827 -1.98594 10.82 184 181 178
1.82348 -1.98961 10.84 182 181 178
1.83535 -1.98961 10.84 181 180 177
1.84892 -1.99145 10.85 182 181 178
1.86422 -1.99512 10.87 181 180 177
1.87612 -1.99512 10.87 181 180 177
1.88802 -1.99512 10.87 180 179 176
1.89992 -1.99512 10.87 176 175 172
1.91358 -1.99695 10.88 178 177 174
1.92725 -1.99879 10.89 181 180 177
1.94096 -2.00062 10.9 181 180 177
1.95647 -2.00429 10.92 181 179 179
1.97023 -2.00613 10.93 180 178 178
1.98582 -2.0098 10.95 189 187 187
1.99963 -2.01164 10.96 190 188 188
2.01529 -2.01531 10.98 189 187 187
2.03101 -2.01898 11 187 185 185
2.0449 -2.02081 11.01 190 188 188
2.06069 -2.02448 11.03 190 188 188
2.07464 -2.02632 11.04 191 189 189
2.08673 -2.02632 11.04 190 188 188
2.10071 -2.02815 11.05 191 188 185
2.11663 -2.03183 11.07 190 187 184
2.13067 -2.03366 11.08 202 198 191
2.1428 -2.03366 11.08 198 194 187
2.15493 -2.03366 11.08 200 196 184
2.16706 -2.03366 11.08 200 196 184
2.18312 -2.03733 11.1 201 197 185
2.19527 -2.03733 11.1 203 199 187
2.20941 -2.03917 11.11 203 199 187
2.22357 -2.041 11.12 204 200 188
2.23775 -2.04284 11.13 205 201 189
2.24994 -2.04284 11.13 205 201 189
2.26212 -2.04284 11.13 205 198 188
2.27634 -2.04467 11.14 203 196 186
2.28854 -2.04467 11.14 204 197 187
2.29867 -2.04284 11.13 204 197 187
2.31085 -2.04284 11.13 205 199 187
2.32095 -2.041 11.12 204 198 186
2.33102 -2.03917 11.11 199 193 181
2.34318 -2.03917 11.11 200 194 182
2.35534 -2.03917 11.11 200 192 185
2.36963 -2.041 11.12 198 190 183
2.38181 -2.041 11.12 201 192 193
2.39398 -2.041 11.12 207 198 199
2.40831 -2.04284 11.13 179 172 181
0 -0 0 157 149 147
0 -0 0 175 167 165
0 -0 0 186 178 171
0 -0 0 189 181 174
0 -0 0 186 179 169
0 -0 0 186 179 169
1.02404 -2.03977 11.18 188 181 171
1.03721 -2.04159 11.19 188 181 171
1.04946 -2.04159 11.19 186 179 169
1.0617 -2.04159 11.19 189 182 172
1.07299 -2.03977 11.18 191 184 174
1.08426 -2.03794 11.17 191 184 174
1.09452 -2.0343 11.15 190 185 175
1.10574 -2.03247 11.14 190 185 175
1.11592 -2.02882 11.12 187 182 172
1.12606 -2.02517 11.1 187 182 172
1.13719 -2.02335 11.09 188 183 173
1.14829 -2.02152 11.08 188 183 173
1.15833 -2.01787 11.06 186 181 171
1.16937 -2.01605 11.05 180 175 165
1.1804 -2.01423 11.04 196 188 181
1.19248 -2.01423 11.04 192 184 177
1.20457 -2.01423 11.04 191 183 176
1.21555 -2.0124 11.03 192 184 177
1.22651 -2.01058 11.02 192 184 177
1.23745 -2.00875 11.01 192 184 177
1.24837 -2.00693 11 193 186 176
1.25812 -2.00328 10.98 197 190 180
1.26898 -2.00145 10.97 190 185 175
1.27865 -1.99781 10.95 190 185 175
1.29064 -1.99781 10.95 195 188 178
1.30143 -1.99598 10.94 193 186 176
1.31341 -1.99598 10.94 192 185 175
1.32417 -1.99416 10.93 192 185 175
1.33613 -1.99416 10.93 194 184 175
1.3481 -1.99416 10.93 197 187 178
1.36006 -1.99416 10.93 199 189 180
1.37328 -1.99598 10.94 199 189 180
1.38526 -1.99598 10.94 198 188 179
1.39468 -1.99233 10.92 198 188 179
1.40534 -1.99051 10.91 195 187 180
1.41599 -1.98868 10.9 197 189 182
1.4253 -1.98503 10.88 196 188 181
1.43588 -1.98321 10.87 196 188 181
1.44512 -1.97956 10.85 196 188 181
1.45565 -1.97774 10.84 196 188 181
1.46616 -1.97591 10.83 196 188 181
1.47529 -1.97226 10.81 192 184 177
1.48575 -1.97044 10.8 193 185 178
1.49618 -1.96861 10.79 197 189 182
1.50799 -1.96861 10.79 197 189 182
1.5198 -1.96861 10.79 196 188 181
1.53019 -1.96679 10.78 197 190 180
1.54056 -1.96497 10.77 193 186 176
1.55235 -1.96497 10.77 192 185 175
1.56269 -1.96314 10.76 192 185 175
1.57447 -1.96314 10.76 191 184 174
1.58624 -1.96314 10.76 195 188 178
1.59654 -1.96132 10.75 193 186 176
1.6083 -1.96132 10.75 190 183 173
1.62007 -1.96132 10.75 187 182 172
1.63184 -1.96132 10.75 191 186 176
1.6436 -1.96132 10.75 191 186 176
1.65537 -1.96132 10.75 190 185 175
1.66714 -1.96132 10.75 190 184 177
1.68047 -1.96314 10.76 194 188 181
1.69225 -1.96314 10.76 189 184 179
1.70402 -1.96314 10.76 187 182 177
1.71899 -1.96679 10.78 184 178 176
1.73079 -1.96679 10.78 186 180 178
1.74421 -1.96861 10.79 187 180 181
1.75602 -1.96861 10.79 187 180 181
1.76947 -1.97044 10.8 185 181 181
1.78294 -1.97226 10.81 184 180 180
1.79477 -1.97226 10.81 184 181 178
1.80827 -1.97409 10.82 185 182 179
1.8218 -1.97591 10.83 183 182 179
1.83535 -1.97774 10.84 181 180 177
1.84721 -1.97774 10.84 183 182 179
1.86079 -1.97956 10.85 180 179 176
1.8744 -1.98139 10.86 182 181 178
1.88628 -1.98139 10.86 178 177 174
1.89992 -1.98321 10.87 177 176 173
1.91182 -1.98321 10.87 177 176 173
1.92548 -1.98503 10.88 177 176 173
1.93917 -1.98686 10.89 174 173 170
1.95468 -1.99051 10.91 182 180 180
1.96842 -1.99233 10.92 188 186 186
1.984 -1.99598 10.94 187 185 185
1.9978 -1.99781 10.95 189 187 187
2.01346 -2.00145 10.97 189 187 187
2.02916 -2.0051 10.99 188 186 186
2.0449 -2.00875 11.01 188 186 186
2.05882 -2.01058 11.02 188 186 186
2.07464 -2.01423 11.04 189 187 187
2.08673 -2.01423 11.04 188 186 186
2.10262 -2.01787 11.06 190 187 184
2.11663 -2.0197 11.07 192 189 186
2.13067 -2.02152 11.08 196 192 185
2.1428 -2.02152 11.08 193 189 182
2.15493 -2.02152 11.08 195 191 179
2.16901 -2.02335 11.09 197 193 181
2.18312 -2.02517 11.1 198 194 182
2.19725 -2.027 11.11 201 197 185
2.2114 -2.02882 11.12 202 198 186
2.22557 -2.03065 11.13 202 198 186
2.23775 -2.03065 11.13 201 197 185
2.25196 -2.03247 11.14 204 200 188
2.26415 -2.03247 11.14 205 199 187
2.27634 -2.03247 11.14 205 199 187
2.28854 -2.03247 11.14 204 198 186
2.30073 -2.03247 11.14 203 197 185
2.31293 -2.03247 11.14 203 197 185
2.32303 -2.03065 11.13 204 198 186
2.33312 -2.02882 11.12 200 194 182
2.34529 -2.02882 11.12 200 194 182
2.35746 -2.02882 11.12 200 193 183
2.36963 -2.02882 11.12 198 191 181
2.38395 -2.03065 11.13 197 189 182
2.39828 -2.03247 11.14 193 185 178
2.41048 -2.03247 11.14 195 185 190
2.42267 -2.03247 11.14 193 183 188
0 -0 0 170 161 162
0 -0 0 174 165 166
0 -0 0 182 173 168
0 -0 0 185 176 171
0 -0 0 188 181 171
0 -0 0 189 182 172
0 -0 0 188 181 171
1.03721 -2.02934 11.19 188 181 171
1.04946 -2.02934 11.19 190 180 171
1.0617 -2.02934 11.19 191 181 172
1.07299 -2.02752 11.18 191 184 174
1.08329 -2.0239 11.16 191 184 174
1.09354 -2.02027 11.14 193 186 176
1.10574 -2.02027 11.14 193 186 176
1.11592 -2.01664 11.12 187 182 172
1.12708 -2.01483 11.11 187 182 172
1.13719 -2.0112 11.09 188 182 175
1.14829 -2.00939 11.08 189 183 176
1.15937 -2.00757 11.07 189 183 176
1.17043 -2.00576 11.06 189 183 176
1.18147 -2.00395 11.05 190 184 177
1.19356 -2.00395 11.05 190 184 177
1.20457 -2.00213 11.04 190 184 177
1.21665 -2.00213 11.04 190 184 177
1.22762 -2.00032 11.03 188 182 175
1.23745 -1.99669 11.01 182 176 169
1.2495 -1.99669 11.01 184 179 169
1.25926 -1.99307 10.99 201 196 186
1.27013 -1.99125 10.98 189 184 174
1.28099 -1.98944 10.97 190 185 175
1.29064 -1.98581 10.95 193 186 176
1.30262 -1.98581 10.95 193 186 176
1.31341 -1.984 10.94 192 185 175
1.32538 -1.984 10.94 192 185 175
1.33613 -1.98218 10.93 192 185 175
1.3481 -1.98218 10.93 195 188 178
1.36131 -1.984 10.94 197 190 180
1.37328 -1.984 10.94 199 192 182
1.38526 -1.984 10.94 195 188 178
1.39595 -1.98218 10.93 192 185 175
1.40663 -1.98037 10.92 192 184 177
1.41599 -1.97674 10.9 196 188 181
1.42661 -1.97493 10.89 195 187 180
1.43588 -1.9713 10.87 195 187 180
1.44645 -1.96949 10.86 196 187 182
1.45565 -1.96586 10.84 196 187 182
1.46481 -1.96224 10.82 195 186 181
1.47529 -1.96042 10.81 195 186 181
1.48437 -1.9568 10.79 193 184 179
1.49618 -1.9568 10.79 197 188 183
1.50799 -1.9568 10.79 196 187 182
1.51839 -1.95498 10.78 195 186 181
1.53019 -1.95498 10.78 195 187 180
1.54056 -1.95317 10.77 195 187 180
1.55091 -1.95135 10.76 196 189 179
1.56269 -1.95135 10.76 195 188 178
1.57447 -1.95135 10.76 191 184 174
1.58477 -1.94954 10.75 193 186 176
1.59654 -1.94954 10.75 191 186 176
1.60681 -1.94773 10.74 191 186 176
1.61856 -1.94773 10.74 190 185 175
1.63032 -1.94773 10.74 190 185 175
1.64208 -1.94773 10.74 190 185 175
1.65537 -1.94954 10.75 190 185 175
1.66714 -1.94954 10.75 190 184 177
1.68047 -1.95135 10.76 193 187 180
1.69225 -1.95135 10.76 188 183 178
1.70561 -1.95317 10.77 187 182 177
1.71899 -1.95498 10.78 189 186 183
1.73079 -1.95498 10.78 183 180 177
1.74421 -1.9568 10.79 185 182 179
1.75602 -1.9568 10.79 185 182 179
1.76947 -1.95861 10.8 185 182 179
1.78294 -1.96042 10.81 184 181 178
1.79477 -1.96042 10.81 182 180 180
1.8066 -1.96042 10.81 183 181 181
1.82012 -1.96224 10.82 183 181 181
1.83365 -1.96405 10.83 182 180 180
1.84721 -1.96586 10.84 182 180 180
1.85908 -1.96586 10.84 180 178 178
1.87267 -1.96768 10.85 176 174 174
1.88455 -1.96768 10.85 177 175 175
1.89817 -1.96949 10.86 177 175 175
1.91182 -1.9713 10.87 177 175 175
1.92371 -1.9713 10.87 177 175 175
1.93917 -1.97493 10.89 176 174 174
1.95289 -1.97674 10.9 176 174 174
1.96842 -1.98037 10.92 183 181 181
1.98219 -1.98218 10.93 187 185 185
1.9978 -1.98581 10.95 188 186 186
2.01346 -1.98944 10.97 185 183 183
2.02731 -1.99125 10.98 189 187 187
2.04305 -1.99488 11 188 186 186
2.05696 -1.99669 11.01 187 185 185
2.07464 -2.00213 11.04 184 182 182
2.08862 -2.00395 11.05 187 185 185
2.10262 -2.00576 11.06 190 187 184
2.11663 -2.00757 11.07 189 186 183
2.13067 -2.00939 11.08 192 187 182
2.1428 -2.00939 11.08 193 188 183
2.15688 -2.0112 11.09 195 189 182
2.17097 -2.01301 11.1 195 189 182
2.18509 -2.01483 11.11 197 192 182
2.19923 -2.01664 11.12 198 193 183
2.21339 -2.01845 11.13 198 193 183
2.22757 -2.02027 11.14 198 193 183
2.23976 -2.02027 11.14 193 188 178
2.25196 -2.02027 11.14 200 195 185
2.26618 -2.02208 11.15 207 202 192
2.27839 -2.02208 11.15 200 195 185
2.29059 -2.02208 11.15 200 196 184
2.3028 -2.02208 11.15 200 196 184
2.31293 -2.02027 11.14 200 194 182
2.32512 -2.02027 11.14 199 193 181
2.33731 -2.02027 11.14 199 193 181
2.3474 -2.01845 11.13 202 196 184
2.35958 -2.01845 11.13 200 194 182
2.3739 -2.02027 11.14 198 192 180
2.38609 -2.02027 11.14 197 189 182
2.39828 -2.02027 11.14 197 189 182
2.41264 -2.02208 11.15 195 186 187
2.42485 -2.02208 11.15 203 194 195
0 -0 0 174 167 169
0 -0 0 187 180 182
0 -0 0 183 175 173
0 -0 0 182 174 172
0 -0 0 189 181 174
0 -0 0 190 182 175
0 -0 0 191 181 172
1.03628 -2.01528 11.18 188 178 169
1.04946 -2.01708 11.19 191 181 172
1.06075 -2.01528 11.18 191 181 172
1.07299 -2.01528 11.18 193 183 174
1.08329 -2.01167 11.16 193 183 174
0 -0 0 191 184 174
1.10474 -2.00626 11.13 191 184 174
1.11492 -2.00266 11.11 189 182 172
1.12708 -2.00266 11.11 190 183 173
1.13719 -1.99905 11.09 189 183 176
1.14829 -1.99725 11.08 189 183 176
1.16042 -1.99725 11.08 191 185 178
1.17043 -1.99365 11.06 190 184 177
1.18254 -1.99365 11.06 189 183 176
1.19356 -1.99184 11.05 189 183 176
1.20566 -1.99184 11.05 189 183 176
1.21665 -1.99004 11.04 190 184 177
1.22762 -1.98824 11.03 189 184 174
1.23857 -1.98644 11.02 188 183 173
1.2495 -1.98463 11.01 180 175 165
1.26041 -1.98283 11 195 190 180
1.27013 -1.97922 10.98 189 184 174
1.28099 -1.97742 10.97 190 185 175
1.29064 -1.97382 10.95 191 186 176
1.30262 -1.97382 10.95 191 186 176
1.31461 -1.97382 10.95 191 186 176
1.32538 -1.97201 10.94 190 185 175
1.33736 -1.97201 10.94 190 185 175
1.3481 -1.97021 10.93 190 185 175
1.36006 -1.97021 10.93 193 186 176
1.37328 -1.97201 10.94 193 186 176
1.38526 -1.97201 10.94 191 184 174
1.39595 -1.97021 10.93 190 183 173
1.40663 -1.96841 10.92 191 183 176
1.41599 -1.9648 10.9 196 188 181
1.42661 -1.963 10.89 196 188 181
1.43588 -1.9594 10.87 195 187 180
1.44645 -1.95759 10.86 196 187 182
1.45565 -1.95399 10.84 196 187 182
1.46481 -1.95038 10.82 196 187 182
1.47529 -1.94858 10.81 196 187 182
1.48437 -1.94498 10.79 196 187 182
1.49618 -1.94498 10.79 197 188 183
1.50659 -1.94317 10.78 195 186 181
1.51839 -1.94317 10.78 195 186 181
1.52877 -1.94137 10.77 196 188 181
1.54056 -1.94137 10.77 195 187 180
1.55091 -1.93957 10.76 193 185 178
1.56269 -1.93957 10.76 192 184 177
1.573 -1.93777 10.75 191 184 174
1.5833 -1.93596 10.74 192 185 175
1.59654 -1.93777 10.75 191 184 174
1.60681 -1.93596 10.74 191 184 174
1.61856 -1.93596 10.74 190 184 177
1.63032 -1.93596 10.74 190 184 177
1.64208 -1.93596 10.74 191 185 178
1.65383 -1.93596 10.74 190 184 177
1.66714 -1.93777 10.75 192 188 181
1.68047 -1.93957 10.76 200 196 189
1.69225 -1.93957 10.76 182 180 174
1.70561 -1.94137 10.77 185 183 177
1.71899 -1.94317 10.78 187 184 181
1.73079 -1.94317 10.78 183 180 177
1.74421 -1.94498 10.79 186 183 180
1.75602 -1.94498 10.79 185 182 179
1.76947 -1.94678 10.8 182 181 178
1.78294 -1.94858 10.81 182 181 178
1.79477 -1.94858 10.81 184 183 180
1.8066 -1.94858 10.81 183 182 179
1.82012 -1.95038 10.82 182 181 178
1.83365 -1.95219 10.83 178 177 174
1.84551 -1.95219 10.83 177 176 173
1.85908 -1.95399 10.84 177 176 173
1.87094 -1.95399 10.84 178 177 174
1.88455 -1.95579 10.85 178 177 174
1.89642 -1.95579 10.85 178 176 176
1.91006 -1.95759 10.86 177 175 175
1.92371 -1.9594 10.87 177 175 175
1.93739 -1.9612 10.88 178 176 176
1.95289 -1.9648 10.9 170 168 168
1.96662 -1.96661 10.91 181 179 179
1.98038 -1.96841 10.92 185 183 183
1.9978 -1.97382 10.95 185 183 183
2.01162 -1.97562 10.96 185 184 181
2.02731 -1.97922 10.98 185 184 181
2.04119 -1.98103 10.99 187 186 183
2.05696 -1.98463 11.01 185 184 181
2.07277 -1.98824 11.03 183 182 179
2.08673 -1.99004 11.04 184 183 180
2.10071 -1.99184 11.05 189 186 183
2.11855 -1.99725 11.08 189 186 183
2.13067 -1.99725 11.08 192 187 182
2.14474 -1.99905 11.09 192 187 182
2.15882 -2.00086 11.1 192 187 182
2.17293 -2.00266 11.11 191 186 181
2.18705 -2.00446 11.12 193 189 182
2.2012 -2.00626 11.13 191 187 180
2.21537 -2.00807 11.14 194 190 183
2.22757 -2.00807 11.14 195 191 184
2.23976 -2.00807 11.14 195 191 184
2.25398 -2.00987 11.15 188 184 177
2.26618 -2.00987 11.15 200 197 187
2.28043 -2.01167 11.16 198 195 185
2.29265 -2.01167 11.16 197 192 182
2.3028 -2.00987 11.15 196 191 181
2.315 -2.00987 11.15 197 192 182
2.32512 -2.00807 11.14 197 192 182
2.33731 -2.00807 11.14 198 193 183
2.34951 -2.00807 11.14 197 192 182
2.3617 -2.00807 11.14 198 191 181
2.3739 -2.00807 11.14 198 191 181
2.38823 -2.00987 11.15 197 190 180
2.40259 -2.01167 11.16 195 188 178
2.41697 -2.01347 11.17 192 182 180
2.42702 -2.01167 11.16 200 190 188
2.44142 -2.01347 11.17 200 191 198
0 -0 0 165 157 162
0 -0 0 189 181 186
0 -0 0 183 175 173
0 -0 0 183 175 173
0 -0 0 186 180 173
0 -0 0 186 180 173
0 -0 0 192 182 173
0 -0 0 186 176 167
1.04852 -2.00303 11.18 190 180 171
1.0617 -2.00482 11.19 190 180 171
1.07203 -2.00124 11.17 191 181 172
1.08329 -1.99945 11.16 192 182 173
0 -0 0 192 182 173
1.10474 -1.99407 11.13 192 182 173
1.11492 -1.99049 11.11 189 182 172
1.12708 -1.99049 11.11 189 182 172
1.13821 -1.9887 11.1 190 182 175
1.14933 -1.98691 11.09 190 182 175
1.16042 -1.98511 11.08 191 183 176
1.17149 -1.98332 11.07 191 183 176
1.18254 -1.98153 11.06 190 182 175
1.19464 -1.98153 11.06 190 182 175
1.20566 -1.97974 11.05 189 183 176
1.21665 -1.97795 11.04 190 184 177
1.22762 -1.97616 11.03 189 184 174
1.23857 -1.97436 11.02 189 184 174
1.2495 -1.97257 11.01 189 184 174
1.26041 -1.97078 11 189 184 174
1.27013 -1.9672 10.98 189 184 174
1.28215 -1.9672 10.98 191 186 176
1.29181 -1.96361 10.96 191 186 176
1.30262 -1.96182 10.95 191 186 176
1.31461 -1.96182 10.95 192 185 175
1.32538 -1.96003 10.94 192 185 175
1.33613 -1.95824 10.93 192 185 175
1.3481 -1.95824 10.93 192 185 175
1.36006 -1.95824 10.93 192 185 175
1.37328 -1.96003 10.94 193 186 176
1.38399 -1.95824 10.93 193 186 176
1.39595 -1.95824 10.93 191 184 174
1.40663 -1.95645 10.92 192 185 175
1.41599 -1.95286 10.9 196 189 179
1.42661 -1.95107 10.89 193 185 178
1.43588 -1.94749 10.87 195 187 180
1.44778 -1.94749 10.87 196 187 182
1.45565 -1.94212 10.84 195 186 181
1.46616 -1.94032 10.83 193 186 181
1.47529 -1.93674 10.81 194 187 182
1.48575 -1.93495 10.8 194 187 182
1.49618 -1.93316 10.79 194 187 182
1.50799 -1.93316 10.79 193 186 181
1.51839 -1.93137 10.78 193 186 181
1.52877 -1.92957 10.77 191 184 179
1.54056 -1.92957 10.77 187 180 175
1.55091 -1.92778 10.76 190 184 177
1.56269 -1.92778 10.76 191 185 178
1.573 -1.92599 10.75 190 184 177
1.5833 -1.9242 10.74 189 183 176
1.59654 -1.92599 10.75 189 183 176
1.60681 -1.9242 10.74 189 183 176
1.61856 -1.9242 10.74 189 183 176
1.63032 -1.9242 10.74 190 184 177
1.6436 -1.92599 10.75 190 184 177
1.65537 -1.92599 10.75 191 185 178
1.66869 -1.92778 10.76 193 188 183
1.68047 -1.92778 10.76 195 190 185
1.69225 -1.92778 10.76 182 180 174
1.70561 -1.92957 10.77 185 183 177
1.71899 -1.93137 10.78 186 183 180
1.7324 -1.93316 10.79 186 183 180
1.74421 -1.93316 10.79 185 184 181
1.75602 -1.93316 10.79 183 182 179
1.76947 -1.93495 10.8 182 180 180
1.78294 -1.93674 10.81 184 182 182
1.79477 -1.93674 10.81 185 183 183
1.80827 -1.93853 10.82 184 182 182
1.82012 -1.93853 10.82 182 180 180
1.83196 -1.93853 10.82 178 176 176
1.84551 -1.94032 10.83 177 175 175
1.85908 -1.94212 10.84 177 175 175
1.87094 -1.94212 10.84 180 178 178
1.88455 -1.94391 10.85 178 176 176
1.89642 -1.94391 10.85 178 176 176
1.91006 -1.9457 10.86 177 175 175
1.92371 -1.94749 10.87 178 176 176
1.93739 -1.94928 10.88 178 176 176
1.95289 -1.95286 10.9 178 178 178
1.96662 -1.95466 10.91 181 181 181
1.98038 -1.95645 10.92 181 181 181
1.99598 -1.96003 10.94 182 182 182
2.00979 -1.96182 10.95 181 182 179
2.02731 -1.9672 10.98 181 182 179
2.04119 -1.96899 10.99 184 183 180
2.05696 -1.97257 11.01 185 184 181
2.07277 -1.97616 11.03 183 182 179
2.08673 -1.97795 11.04 182 181 178
2.10071 -1.97974 11.05 183 182 179
2.11663 -1.98332 11.07 183 182 179
2.13067 -1.98511 11.08 185 182 179
2.14474 -1.98691 11.09 183 180 177
2.16077 -1.99049 11.11 190 187 184
2.17293 -1.99049 11.11 187 184 181
2.18902 -1.99407 11.13 189 186 183
2.2012 -1.99407 11.13 183 180 177
2.21537 -1.99586 11.14 185 183 177
2.22757 -1.99586 11.14 185 183 177
2.24177 -1.99766 11.15 190 188 182
2.25398 -1.99766 11.15 189 187 181
2.26822 -1.99945 11.16 190 188 182
2.28043 -1.99945 11.16 190 188 182
2.29265 -1.99945 11.16 193 188 183
2.30486 -1.99945 11.16 193 188 183
2.315 -1.99766 11.15 192 187 182
2.32721 -1.99766 11.15 191 186 181
2.33941 -1.99766 11.15 191 186 181
2.35162 -1.99766 11.15 194 189 184
2.36594 -1.99945 11.16 195 190 185
2.38029 -2.00124 11.17 194 189 184
2.39251 -2.00124 11.17 195 188 183
2.40474 -2.00124 11.17 193 186 181
2.41913 -2.00303 11.18 190 182 180
2.43137 -2.00303 11.18 189 181 179
2.44361 -2.00303 11.18 183 177 183
0 -0 0 183 178 182
0 -0 0 184 179 183
0 -0 0 179 176 173
0 -0 0 179 176 173
0 -0 0 183 177 170
0 -0 0 180 174 167
0 -0 0 192 182 173
0 -0 0 198 188 179
1.04852 -1.99078 11.18 198 188 179
1.06075 -1.99078 11.18 188 178 169
1.07203 -1.989 11.17 190 180 171
1.08232 -1.98544 11.15 193 183 174
0 -0 0 193 183 174
1.10474 -1.98188 11.13 193 183 174
1.11492 -1.97832 11.11 190 183 173
1.12708 -1.97832 11.11 190 183 173
1.13821 -1.97654 11.1 189 181 174
1.14933 -1.97476 11.09 189 181 174
1.16042 -1.97298 11.08 190 182 175
1.17149 -1.9712 11.07 188 180 173
1.18254 -1.96942 11.06 187 181 174
1.19464 -1.96942 11.06 188 182 175
1.20566 -1.96764 11.05 188 182 175
1.21665 -1.96585 11.04 189 183 176
1.22762 -1.96407 11.03 189 184 174
1.23857 -1.96229 11.02 189 184 174
1.2495 -1.96051 11.01 188 183 173
1.26041 -1.95873 11 188 183 173
1.27129 -1.95695 10.99 188 183 173
1.28215 -1.95517 10.98 189 184 174
1.29181 -1.95161 10.96 192 185 175
1.30262 -1.94983 10.95 191 184 174
1.31461 -1.94983 10.95 190 183 173
1.32538 -1.94805 10.94 191 184 174
1.33736 -1.94805 10.94 191 184 174
1.3481 -1.94627 10.93 192 185 175
1.36006 -1.94627 10.93 192 185 175
1.37203 -1.94627 10.93 193 186 176
1.38399 -1.94627 10.93 193 186 176
1.39468 -1.94449 10.92 192 185 175
1.40663 -1.94449 10.92 193 186 176
1.41599 -1.94093 10.9 193 186 176
1.42792 -1.94093 10.9 192 184 177
1.43721 -1.93736 10.88 195 187 180
1.44778 -1.93558 10.87 193 184 179
1.45834 -1.9338 10.86 191 182 177
1.46752 -1.93024 10.84 195 186 181
1.47665 -1.92668 10.82 197 188 183
1.48712 -1.9249 10.81 194 187 182
1.49757 -1.92312 10.8 193 186 181
1.50799 -1.92134 10.79 191 184 179
1.5198 -1.92134 10.79 190 183 178
1.53019 -1.91956 10.78 188 181 176
1.54056 -1.91778 10.77 188 181 176
1.55091 -1.916 10.76 190 183 178
1.56269 -1.916 10.76 191 184 179
1.57447 -1.916 10.76 191 185 178
1.58624 -1.916 10.76 189 183 176
1.59654 -1.91422 10.75 189 183 176
1.6083 -1.91422 10.75 190 184 177
1.62007 -1.91422 10.75 189 183 176
1.63184 -1.91422 10.75 189 183 176
1.6436 -1.91422 10.75 189 183 176
1.65691 -1.916 10.76 189 183 176
1.66869 -1.916 10.76 187 182 177
1.68047 -1.916 10.76 188 183 178
1.69382 -1.91778 10.77 187 182 177
1.70719 -1.91956 10.78 186 181 176
1.72059 -1.92134 10.79 185 182 179
1.7324 -1.92134 10.79 178 175 172
1.74421 -1.92134 10.79 185 184 181
1.75764 -1.92312 10.8 184 183 180
1.7711 -1.9249 10.81 184 182 182
1.78294 -1.9249 10.81 184 182 182
1.79477 -1.9249 10.81 185 183 183
1.80827 -1.92668 10.82 184 182 182
1.82012 -1.92668 10.82 181 179 179
1.83365 -1.92846 10.83 177 175 175
1.84551 -1.92846 10.83 177 175 175
1.85908 -1.93024 10.84 176 174 174
1.87094 -1.93024 10.84 176 174 174
1.88455 -1.93202 10.85 178 176 176
1.89817 -1.9338 10.86 176 174 174
1.91006 -1.9338 10.86 177 175 175
1.92371 -1.93558 10.87 178 176 176
1.93739 -1.93736 10.88 178 176 176
1.95289 -1.94093 10.9 178 176 176
1.96482 -1.94093 10.9 181 179 179
1.98038 -1.94449 10.92 180 181 178
1.99415 -1.94627 10.93 181 182 179
2.00979 -1.94983 10.95 179 180 177
2.02547 -1.95339 10.97 179 180 177
2.03933 -1.95517 10.98 183 184 181
2.05696 -1.96051 11.01 182 183 180
2.07089 -1.96229 11.02 181 182 179
2.08673 -1.96585 11.04 176 177 174
2.10262 -1.96942 11.06 179 180 177
2.11855 -1.97298 11.08 181 182 179
2.13067 -1.97298 11.08 180 179 176
2.14474 -1.97476 11.09 171 170 167
2.16077 -1.97832 11.11 183 181 181
2.17488 -1.9801 11.12 183 181 181
2.19099 -1.98366 11.14 182 180 180
2.20318 -1.98366 11.14 182 180 180
2.21537 -1.98366 11.14 182 181 178
2.22957 -1.98544 11.15 183 182 179
2.24177 -1.98544 11.15 184 183 180
2.25398 -1.98544 11.15 184 183 180
2.26822 -1.98722 11.16 183 182 179
2.28043 -1.98722 11.16 184 183 180
2.29265 -1.98722 11.16 184 183 180
2.30486 -1.98722 11.16 184 183 180
2.31708 -1.98722 11.16 185 182 179
2.32721 -1.98544 11.15 186 183 180
2.34151 -1.98722 11.16 187 184 181
2.35373 -1.98722 11.16 193 190 187
2.36806 -1.989 11.17 191 188 185
2.38242 -1.99078 11.18 191 188 185
2.39466 -1.99078 11.18 193 188 183
2.40689 -1.99078 11.18 192 187 182
2.4213 -1.99256 11.19 188 182 180
2.43354 -1.99256 11.19 187 181 179
2.44579 -1.99256 11.19 189 187 188
2.45804 -1.99256 11.19 195 193 194
0 -0 0 189 186 190
0 -0 0 178 175 179
0 -0 0 178 175 172
0 -0 0 179 176 173
0 -0 0 184 178 171
0 -0 0 184 178 171
0 -0 0 192 182 173
0 -0 0 195 185 176
0 -0 0 193 183 174
1.06075 -1.97854 11.18 186 176 167
1.07203 -1.97677 11.17 188 178 169
0 -0 0 193 183 174
0 -0 0 193 183 174
1.10375 -1.96792 11.12 193 183 174
1.11492 -1.96615 11.11 191 183 176
1.12606 -1.96438 11.1 191 183 176
1.13719 -1.96261 11.09 191 183 176
1.14829 -1.96084 11.08 192 184 177
1.16042 -1.96084 11.08 192 184 177
1.17043 -1.9573 11.06 186 178 171
1.18254 -1.9573 11.06 189 181 174
1.19356 -1.95553 11.05 189 181 174
1.20457 -1.95376 11.04 190 183 173
1.21665 -1.95376 11.04 191 184 174
1.22762 -1.95199 11.03 190 183 173
1.23857 -1.95022 11.02 189 182 172
1.2495 -1.94845 11.01 189 182 172
1.26041 -1.94668 11 190 183 173
1.27129 -1.94491 10.99 191 184 174
1.28215 -1.94314 10.98 191 184 174
1.29181 -1.9396 10.96 189 184 174
1.30262 -1.93783 10.95 190 185 175
1.31461 -1.93783 10.95 190 185 175
1.32538 -1.93606 10.94 190 185 175
1.33613 -1.9343 10.93 190 185 175
1.34686 -1.93253 10.92 190 185 175
1.35882 -1.93253 10.92 190 185 175
1.37077 -1.93253 10.92 189 184 174
1.38272 -1.93253 10.92 188 183 173
1.39468 -1.93253 10.92 188 183 173
1.40534 -1.93076 10.91 191 184 174
1.41728 -1.93076 10.91 192 185 175
1.42792 -1.92899 10.9 192 184 177
1.43853 -1.92722 10.89 193 185 178
1.44911 -1.92545 10.88 193 184 179
1.45968 -1.92368 10.87 193 184 179
1.46887 -1.92014 10.85 193 184 179
1.47802 -1.9166 10.83 195 186 181
1.4885 -1.91483 10.82 192 183 178
1.49895 -1.91306 10.81 195 186 181
1.50939 -1.91129 10.8 191 184 179
1.5198 -1.90952 10.79 191 184 179
1.53161 -1.90952 10.79 190 183 178
1.54199 -1.90775 10.78 190 183 178
1.55091 -1.90421 10.76 191 184 179
1.56269 -1.90421 10.76 191 184 179
1.57447 -1.90421 10.76 190 183 178
1.58624 -1.90421 10.76 190 183 178
1.59802 -1.90421 10.76 189 182 177
1.6083 -1.90244 10.75 190 183 178
1.62007 -1.90244 10.75 190 183 178
1.63336 -1.90421 10.76 190 183 178
1.64513 -1.90421 10.76 188 181 176
1.65691 -1.90421 10.76 188 181 176
1.67024 -1.90598 10.77 186 181 176
1.68359 -1.90775 10.78 188 183 178
1.69539 -1.90775 10.78 189 184 179
1.70877 -1.90952 10.79 188 183 178
1.72059 -1.90952 10.79 186 183 180
1.7324 -1.90952 10.79 184 181 178
1.74582 -1.91129 10.8 187 186 183
1.75764 -1.91129 10.8 185 184 181
1.7711 -1.91306 10.81 187 185 185
1.78294 -1.91306 10.81 184 182 182
1.79477 -1.91306 10.81 183 181 181
1.80827 -1.91483 10.82 183 181 181
1.82012 -1.91483 10.82 182 180 180
1.83365 -1.9166 10.83 181 179 179
1.84721 -1.91837 10.84 177 175 175
1.85908 -1.91837 10.84 176 174 174
1.87094 -1.91837 10.84 177 175 175
1.88455 -1.92014 10.85 178 176 176
1.89817 -1.92191 10.86 176 174 174
1.91006 -1.92191 10.86 175 173 173
1.92371 -1.92368 10.87 178 176 176
1.93739 -1.92545 10.88 177 175 175
1.95289 -1.92899 10.9 174 174 174
1.96482 -1.92899 10.9 182 182 182
1.98038 -1.93253 10.92 178 179 176
1.99415 -1.9343 10.93 172 173 170
2.00979 -1.93783 10.95 171 176 172
2.02362 -1.9396 10.96 172 177 173
2.03933 -1.94314 10.98 171 176 172
2.05322 -1.94491 10.99 176 181 177
2.06901 -1.94845 11.01 172 177 173
2.08484 -1.95199 11.03 166 171 167
2.10071 -1.95553 11.05 169 173 172
2.11663 -1.95907 11.07 173 177 176
2.13067 -1.96084 11.08 163 167 166
2.14667 -1.96438 11.1 164 168 167
2.16077 -1.96615 11.11 172 172 173
2.17488 -1.96792 11.12 171 171 172
2.19099 -1.97146 11.14 171 171 171
2.20318 -1.97146 11.14 172 172 172
2.21537 -1.97146 11.14 177 175 175
2.22757 -1.97146 11.14 178 176 176
2.24177 -1.97323 11.15 177 175 175
2.25398 -1.97323 11.15 176 174 174
2.26822 -1.975 11.16 175 175 175
2.28043 -1.975 11.16 174 174 174
2.29059 -1.97323 11.15 180 180 180
2.3028 -1.97323 11.15 182 182 182
2.31708 -1.975 11.16 180 180 181
2.32721 -1.97323 11.15 181 181 182
2.34151 -1.975 11.16 182 180 181
2.35583 -1.97677 11.17 183 181 182
2.37018 -1.97854 11.18 182 180 180
2.38242 -1.97854 11.18 183 181 181
2.39466 -1.97854 11.18 189 186 183
2.40905 -1.98031 11.19 190 187 184
2.42346 -1.98208 11.2 186 183 180
2.43572 -1.98208 11.2 186 183 180
2.44798 -1.98208 11.2 184 182 182
2.45804 -1.98031 11.19 177 175 175
0 -0 0 165 161 174
0 -0 0 188 186 187
0 -0 0 178 176 177
0 -0 0 187 187 181
0 -0 0 178 178 172
0 -0 0 183 178 168
0 -0 0 187 182 172
0 -0 0 192 183 172
0 -0 0 191 182 171
0 -0 0 192 183 172
0 -0 0 190 181 170
1.07299 -1.96629 11.18 191 182 171
0 -0 0 193 184 173
0 -0 0 193 183 174
1.10276 -1.95398 11.11 192 182 173
1.11492 -1.95398 11.11 191 184 174
1.12606 -1.95222 11.1 191 184 174
1.13821 -1.95222 11.1 192 185 175
1.14829 -1.9487 11.08 195 188 178
1.16042 -1.9487 11.08 191 186 176
1.17043 -1.94519 11.06 189 184 174
1.18147 -1.94343 11.05 188 183 173
1.19356 -1.94343 11.05 187 182 172
1.20457 -1.94167 11.04 189 184 174
1.21665 -1.94167 11.04 188 183 173
1.22762 -1.93991 11.03 187 182 172
1.23745 -1.93639 11.01 189 184 174
1.2495 -1.93639 11.01 187 182 172
1.26041 -1.93463 11 193 188 178
1.27129 -1.93288 10.99 191 186 176
1.28215 -1.93112 10.98 190 185 175
1.29299 -1.92936 10.97 191 186 176
1.30262 -1.92584 10.95 191 186 176
1.31461 -1.92584 10.95 190 185 175
1.32538 -1.92408 10.94 188 183 173
1.33613 -1.92232 10.93 188 183 173
1.34686 -1.92056 10.92 190 185 175
1.35882 -1.92056 10.92 190 185 175
1.37077 -1.92056 10.92 191 186 176
1.38272 -1.92056 10.92 191 186 176
1.39468 -1.92056 10.92 188 183 173
1.40534 -1.91881 10.91 190 183 173
1.41599 -1.91705 10.9 190 183 173
1.42792 -1.91705 10.9 191 183 176
1.43853 -1.91529 10.89 193 185 178
1.44911 -1.91353 10.88 193 185 178
1.45968 -1.91177 10.87 192 184 177
1.47023 -1.91001 10.86 193 185 178
1.47938 -1.90649 10.84 191 183 176
1.48987 -1.90474 10.83 190 184 177
1.49895 -1.90122 10.81 191 185 178
1.51079 -1.90122 10.81 193 187 180
1.52262 -1.90122 10.81 191 185 178
1.53161 -1.8977 10.79 189 183 176
1.54342 -1.8977 10.79 188 182 175
1.55379 -1.89594 10.78 189 182 177
1.56269 -1.89242 10.76 193 186 181
1.57447 -1.89242 10.76 188 181 176
1.58624 -1.89242 10.76 189 182 177
1.59802 -1.89242 10.76 190 183 178
1.6098 -1.89242 10.76 190 183 178
1.62158 -1.89242 10.76 190 183 178
1.63336 -1.89242 10.76 189 182 177
1.64513 -1.89242 10.76 187 180 175
1.65845 -1.89418 10.77 188 181 176
1.67179 -1.89594 10.78 186 181 176
1.68515 -1.8977 10.79 187 182 177
1.69696 -1.8977 10.79 189 184 179
1.70877 -1.8977 10.79 189 184 179
1.72218 -1.89946 10.8 185 184 181
1.734 -1.89946 10.8 185 184 181
1.74744 -1.90122 10.81 185 184 181
1.75927 -1.90122 10.81 184 183 180
1.7711 -1.90122 10.81 185 185 185
1.78294 -1.90122 10.81 182 182 182
1.79643 -1.90298 10.82 179 179 179
1.80827 -1.90298 10.82 179 179 179
1.8218 -1.90474 10.83 181 179 179
1.83365 -1.90474 10.83 181 179 179
1.84721 -1.90649 10.84 181 179 179
1.85908 -1.90649 10.84 180 178 178
1.87267 -1.90825 10.85 180 178 178
1.88455 -1.90825 10.85 181 179 179
1.89817 -1.91001 10.86 185 183 183
1.91182 -1.91177 10.87 175 173 173
1.92371 -1.91177 10.87 176 174 174
1.93739 -1.91353 10.88 176 174 174
1.95289 -1.91705 10.9 173 173 173
1.96662 -1.91881 10.91 187 187 187
1.98038 -1.92056 10.92 169 173 172
1.99233 -1.92056 10.92 163 167 166
2.00979 -1.92584 10.95 160 170 165
2.02362 -1.9276 10.96 159 169 164
2.03933 -1.93112 10.98 158 169 167
2.05322 -1.93288 10.99 158 169 167
2.06901 -1.93639 11.01 155 166 164
2.08484 -1.93991 11.03 163 174 172
2.10071 -1.94343 11.05 164 175 174
2.11663 -1.94695 11.07 162 173 172
2.13067 -1.9487 11.08 160 170 172
2.14667 -1.95222 11.1 158 168 170
2.16077 -1.95398 11.11 165 173 175
2.17488 -1.95574 11.12 165 173 175
2.18902 -1.9575 11.13 159 164 167
2.2012 -1.9575 11.13 160 165 168
2.21339 -1.9575 11.13 171 175 175
2.22557 -1.9575 11.13 169 173 173
2.23976 -1.95926 11.14 168 172 172
2.25196 -1.95926 11.14 161 165 165
2.26415 -1.95926 11.14 159 163 163
2.27839 -1.96102 11.15 164 168 168
2.28854 -1.95926 11.14 159 162 165
2.30073 -1.95926 11.14 176 179 182
2.315 -1.96102 11.15 169 171 176
2.32512 -1.95926 11.14 166 168 173
2.33941 -1.96102 11.15 169 172 175
2.35373 -1.96277 11.16 177 180 183
2.36806 -1.96453 11.17 179 179 180
2.38242 -1.96629 11.18 180 180 181
2.39466 -1.96629 11.18 183 181 181
2.40689 -1.96629 11.18 184 182 182
2.4213 -1.96805 11.19 185 181 181
2.43354 -1.96805 11.19 183 179 179
2.44579 -1.96805 11.19 180 176 176
2.45804 -1.96805 11.19 183 179 179
0 -0 0 141 141 153
0 -0 0 171 169 170
0 -0 0 181 179 180
0 -0 0 182 180 174
0 -0 0 182 180 174
0 -0 0 186 179 169
0 -0 0 189 182 172
0 -0 0 190 181 170
0 -0 0 190 181 170
0 -0 0 191 182 171
0 -0 0 191 182 171
0 -0 0 191 182 171
0 -0 0 192 183 172
0 -0 0 192 183 172
1.10276 -1.94181 11.11 191 182 171
1.11492 -1.94181 11.11 190 183 173
1.12505 -1.93832 11.09 191 184 174
1.13719 -1.93832 11.09 192 185 175
1.14829 -1.93657 11.08 195 188 178
1.16042 -1.93657 11.08 190 185 175
1.17043 -1.93307 11.06 189 184 174
1.18147 -1.93132 11.05 189 184 174
1.19248 -1.92958 11.04 189 184 174
1.20457 -1.92958 11.04 189 184 174
1.21665 -1.92958 11.04 187 182 172
1.22651 -1.92608 11.02 186 182 170
1.23745 -1.92433 11.01 188 184 172
1.2495 -1.92433 11.01 190 186 174
1.26041 -1.92259 11 190 186 174
1.27013 -1.91909 10.98 191 187 175
1.28215 -1.91909 10.98 191 187 175
1.29181 -1.91559 10.96 189 185 173
1.30262 -1.91385 10.95 181 177 165
1.31461 -1.91385 10.95 177 173 161
1.32538 -1.9121 10.94 179 175 163
1.33491 -1.9086 10.92 179 174 164
1.34686 -1.9086 10.92 190 185 175
1.35757 -1.90685 10.91 191 186 176
1.36826 -1.90511 10.9 191 186 176
1.38146 -1.90685 10.91 190 185 175
1.3934 -1.90685 10.91 190 185 175
1.40405 -1.90511 10.9 191 184 174
1.41599 -1.90511 10.9 191 184 174
1.42792 -1.90511 10.9 191 183 176
1.43853 -1.90336 10.89 192 184 177
1.45045 -1.90336 10.89 192 184 177
1.45968 -1.89986 10.87 191 183 176
1.47158 -1.89986 10.87 193 185 178
1.48075 -1.89637 10.85 193 185 178
1.49125 -1.89462 10.84 193 185 178
1.50311 -1.89462 10.84 192 184 177
1.51218 -1.89112 10.82 190 184 177
1.52262 -1.88938 10.81 193 187 180
1.53445 -1.88938 10.81 191 184 179
1.54342 -1.88588 10.79 191 184 179
1.55523 -1.88588 10.79 191 184 179
1.56559 -1.88413 10.78 193 186 181
1.57593 -1.88239 10.77 191 184 179
1.58772 -1.88239 10.77 190 183 178
1.59951 -1.88239 10.77 190 183 178
1.6098 -1.88064 10.76 190 183 178
1.62158 -1.88064 10.76 190 183 178
1.63487 -1.88239 10.77 190 183 178
1.64819 -1.88413 10.78 189 182 177
1.65999 -1.88413 10.78 188 181 176
1.67334 -1.88588 10.79 186 181 176
1.68515 -1.88588 10.79 186 181 176
1.69854 -1.88763 10.8 187 182 177
1.71194 -1.88938 10.81 188 183 178
1.72377 -1.88938 10.81 184 183 180
1.73561 -1.88938 10.81 184 183 180
1.74744 -1.88938 10.81 183 183 183
1.75927 -1.88938 10.81 181 181 181
1.77274 -1.89112 10.82 180 180 180
1.78459 -1.89112 10.82 180 180 180
1.79643 -1.89112 10.82 179 179 179
1.80995 -1.89287 10.83 179 179 179
1.8218 -1.89287 10.83 181 179 180
1.83535 -1.89462 10.84 181 179 180
1.84721 -1.89462 10.84 182 180 181
1.85908 -1.89462 10.84 182 180 181
1.87267 -1.89637 10.85 181 179 180
1.88628 -1.89812 10.86 180 178 179
1.89992 -1.89986 10.87 178 176 177
1.91182 -1.89986 10.87 176 174 175
1.92371 -1.89986 10.87 176 174 175
1.93739 -1.90161 10.88 177 175 176
1.95289 -1.90511 10.9 168 168 169
1.96662 -1.90685 10.91 171 171 172
1.98038 -1.9086 10.92 154 163 162
1.99415 -1.91035 10.93 158 167 166
2.00979 -1.91385 10.95 144 155 154
2.02362 -1.91559 10.96 148 159 158
2.03933 -1.91909 10.98 155 165 167
2.05322 -1.92084 10.99 149 159 161
2.06901 -1.92433 11.01 140 152 154
2.08484 -1.92783 11.03 155 167 169
2.10071 -1.93132 11.05 156 166 173
2.11472 -1.93307 11.06 153 163 170
2.13067 -1.93657 11.08 146 159 165
2.14474 -1.93832 11.09 145 158 164
2.15882 -1.94006 11.1 154 167 173
2.17293 -1.94181 11.11 163 176 182
2.18509 -1.94181 11.11 146 156 163
2.19725 -1.94181 11.11 149 159 166
2.20941 -1.94181 11.11 155 162 166
2.22157 -1.94181 11.11 151 158 162
2.23574 -1.94356 11.12 150 157 161
2.24791 -1.94356 11.12 157 164 168
2.26009 -1.94356 11.12 160 167 171
2.2743 -1.94531 11.13 160 167 171
2.28648 -1.94531 11.13 165 171 178
2.30073 -1.94705 11.14 168 174 181
2.31293 -1.94705 11.14 168 173 182
2.32512 -1.94705 11.14 167 172 181
2.33731 -1.94705 11.14 167 171 176
2.35162 -1.9488 11.15 171 175 180
2.36594 -1.95055 11.16 173 176 179
2.38029 -1.9523 11.17 176 179 182
2.39251 -1.9523 11.17 185 185 185
2.40474 -1.9523 11.17 181 181 181
2.41913 -1.95405 11.18 181 179 179
2.43354 -1.95579 11.19 180 178 178
2.44361 -1.95405 11.18 179 176 173
2.45584 -1.95405 11.18 180 177 174
0 -0 0 141 141 153
0 -0 0 174 172 172
0 -0 0 180 178 178
0 -0 0 178 177 169
0 -0 0 180 179 171
0 -0 0 188 182 170
0 -0 0 189 183 171
0 -0 0 188 179 168
0 -0 0 187 178 167
0 -0 0 188 179 168
0 -0 0 190 181 170
0 -0 0 193 182 171
0 -0 0 193 182 171
0 -0 0 192 183 172
0 -0 0 191 182 171
1.11391 -1.9279 11.1 191 182 171
1.12505 -1.92617 11.09 191 182 171
1.13616 -1.92443 11.08 191 184 174
1.14829 -1.92443 11.08 193 186 176
1.16042 -1.92443 11.08 191 184 174
1.17043 -1.92096 11.06 190 183 173
1.18147 -1.91922 11.05 189 184 174
1.19248 -1.91748 11.04 189 184 174
1.20457 -1.91748 11.04 189 184 174
1.21665 -1.91748 11.04 187 182 172
1.22651 -1.91401 11.02 186 182 170
1.23745 -1.91227 11.01 188 184 172
1.24837 -1.91054 11 190 186 174
1.25926 -1.9088 10.99 190 186 174
1.27013 -1.90706 10.98 191 187 175
