ply
format ascii 1.0
comment Created by Open3D
element vertex 1362
property double x
property double y
property double z
property uchar red
property uchar green
property uchar blue
end_header
0.861498 -1.24557 10.98 121 151 140
0.872721 -1.24444 10.97 119 149 138
0.88231 -1.24103 10.94 130 163 145
0.891015 -1.2365 10.9 132 165 147
0.898804 -1.23082 10.85 132 166 143
0.906484 -1.22515 10.8 132 166 143
0.914054 -1.21948 10.75 130 164 141
0.922376 -1.21494 10.71 142 176 153
0.929738 -1.20927 10.66 166 201 176
0.936991 -1.2036 10.61 153 188 163
0.945029 -1.19906 10.57 130 167 142
0.952073 -1.19339 10.52 128 165 140
0.961757 -1.19112 10.5 119 163 137
0.971396 -1.18885 10.48 118 162 136
0.980992 -1.18658 10.46 125 172 145
0.991493 -1.18545 10.45 125 172 145
1.00197 -1.18431 10.44 121 169 139
1.01146 -1.18204 10.42 119 167 137
1.02188 -1.18091 10.41 122 162 136
1.03129 -1.17864 10.39 156 196 170
1.04166 -1.17751 10.38 174 208 185
1.05201 -1.17637 10.37 155 189 166
1.06131 -1.1741 10.35 134 170 147
1.07264 -1.1741 10.35 133 169 146
1.08187 -1.17184 10.33 133 170 145
1.09318 -1.17184 10.33 133 170 145
1.10342 -1.1707 10.32 132 170 142
1.11363 -1.16957 10.31 129 167 139
1.12383 -1.16843 10.3 129 168 138
1.134 -1.1673 10.29 130 169 139
1.14415 -1.16616 10.28 130 169 139
1.15428 -1.16503 10.27 133 172 142
1.16439 -1.16389 10.26 134 173 143
1.17562 -1.16389 10.26 134 173 143
1.18685 -1.16389 10.26 130 168 140
1.19808 -1.16389 10.26 133 171 143
1.20931 -1.16389 10.26 132 169 144
1.22054 -1.16389 10.26 129 166 141
1.23177 -1.16389 10.26 129 165 142
1.243 -1.16389 10.26 130 166 143
1.25423 -1.16389 10.26 122 158 135
1.26546 -1.16389 10.26 114 150 127
1.27669 -1.16389 10.26 118 156 135
1.28792 -1.16389 10.26 118 156 135
1.29915 -1.16389 10.26 116 154 133
1.31038 -1.16389 10.26 118 156 135
1.32161 -1.16389 10.26 120 158 139
1.33284 -1.16389 10.26 119 157 138
1.34539 -1.16503 10.27 124 154 137
1.35795 -1.16616 10.28 123 153 136
0.828449 -1.23804 11.02 140 161 157
0.838986 -1.23579 11 132 161 153
0.849479 -1.23354 10.98 117 146 138
0.860714 -1.23242 10.97 120 151 138
0.87113 -1.23017 10.95 123 154 141
0.880697 -1.2268 10.92 128 161 141
0.888562 -1.22119 10.87 129 162 142
0.896319 -1.21557 10.82 128 163 143
0.903126 -1.20883 10.76 132 167 147
0.910653 -1.20321 10.71 133 169 146
0.91807 -1.19759 10.66 136 172 149
0.92625 -1.1931 10.62 160 197 172
0.934342 -1.18861 10.58 154 191 166
0.942346 -1.18411 10.54 127 164 139
0.950263 -1.17962 10.5 124 161 136
0.959925 -1.17737 10.48 122 164 138
0.969542 -1.17513 10.46 122 164 138
0.979116 -1.17288 10.44 117 165 135
0.989595 -1.17175 10.43 119 167 137
1.00005 -1.17063 10.42 119 168 136
1.00952 -1.16838 10.4 112 161 129
1.01992 -1.16726 10.39 122 160 132
1.0303 -1.16614 10.38 170 208 180
1.04066 -1.16501 10.37 178 213 188
1.04998 -1.16277 10.35 163 198 173
1.06131 -1.16277 10.35 142 178 155
1.0716 -1.16164 10.34 129 165 142
1.08187 -1.16052 10.33 135 171 148
1.09212 -1.1594 10.32 134 170 147
1.10342 -1.1594 10.32 132 170 142
1.11363 -1.15827 10.31 128 166 138
1.12274 -1.15603 10.29 124 162 134
1.134 -1.15603 10.29 129 167 139
1.14415 -1.1549 10.28 129 168 138
1.15428 -1.15378 10.27 134 173 143
1.16439 -1.15266 10.26 135 174 144
1.17562 -1.15266 10.26 133 172 142
1.18685 -1.15266 10.26 128 169 140
1.19808 -1.15266 10.26 131 172 143
1.20931 -1.15266 10.26 131 171 145
1.22054 -1.15266 10.26 126 166 140
1.23177 -1.15266 10.26 126 165 141
1.243 -1.15266 10.26 123 162 138
1.25423 -1.15266 10.26 122 161 137
1.26546 -1.15266 10.26 116 155 131
1.27794 -1.15378 10.27 114 154 133
1.28918 -1.15378 10.27 116 156 135
1.29915 -1.15266 10.26 114 154 133
1.31038 -1.15266 10.26 115 155 134
1.32161 -1.15266 10.26 119 157 138
1.33414 -1.15378 10.27 119 157 138
1.3467 -1.1549 10.28 121 154 136
1.35927 -1.15603 10.29 123 156 138
1.37053 -1.15603 10.29 158 172 162
0.816387 -1.22597 11.02 136 158 151
0.826946 -1.22374 11 134 156 149
0.837461 -1.22152 10.98 117 147 136
0.847932 -1.21929 10.96 112 142 131
0.859144 -1.21818 10.95 120 151 138
0.868744 -1.21484 10.92 127 158 145
0.878277 -1.2115 10.89 126 161 141
0.88611 -1.20594 10.84 127 162 142
0.893834 -1.20038 10.79 128 164 141
0.901448 -1.19482 10.74 129 165 142
0.908952 -1.18925 10.69 128 167 143
0.916347 -1.18369 10.64 125 164 140
0.923633 -1.17813 10.59 129 166 141
0.931692 -1.17368 10.55 136 173 148
0.939664 -1.16923 10.51 127 164 139
0.948453 -1.16589 10.48 127 164 139
0.957177 -1.16255 10.45 123 165 139
0.967689 -1.16144 10.44 123 165 139
0.977241 -1.15922 10.42 113 157 131
0.987697 -1.15811 10.41 114 158 132
0.997173 -1.15588 10.39 122 167 138
1.00757 -1.15477 10.38 120 165 136
1.01796 -1.15366 10.37 128 166 138
1.02831 -1.15254 10.36 149 187 159
1.03865 -1.15143 10.35 156 192 164
1.04998 -1.15143 10.35 149 185 157
1.06028 -1.15032 10.34 148 185 160
1.07056 -1.14921 10.33 140 177 152
1.08187 -1.14921 10.33 135 175 149
1.09212 -1.14809 10.32 134 174 148
1.10235 -1.14698 10.31 132 172 146
1.11363 -1.14698 10.31 124 164 138
1.12274 -1.14476 10.29 125 166 137
1.134 -1.14476 10.29 128 169 140
1.14415 -1.14364 10.28 123 165 134
1.1554 -1.14364 10.28 115 157 126
1.16552 -1.14253 10.27 133 175 144
1.17562 -1.14142 10.26 131 173 142
1.18685 -1.14142 10.26 128 169 140
1.19808 -1.14142 10.26 133 174 145
1.20931 -1.14142 10.26 137 176 152
1.22054 -1.14142 10.26 138 177 153
1.23177 -1.14142 10.26 128 166 147
1.243 -1.14142 10.26 123 161 142
1.25423 -1.14142 10.26 120 158 139
1.26546 -1.14142 10.26 118 156 137
1.27669 -1.14142 10.26 117 157 138
1.28792 -1.14142 10.26 116 156 137
1.29915 -1.14142 10.26 115 155 136
1.31038 -1.14142 10.26 115 155 136
1.32161 -1.14142 10.26 116 156 137
1.33414 -1.14253 10.27 116 156 137
1.3467 -1.14364 10.28 120 153 135
1.35927 -1.14476 10.29 112 145 127
1.37053 -1.14476 10.29 136 149 141
0.815646 -1.21279 11.01 143 166 156
0.825442 -1.20949 10.98 128 151 141
0.835935 -1.20729 10.96 116 147 134
0.846385 -1.20508 10.94 116 147 134
0.856791 -1.20288 10.92 119 153 137
0.866357 -1.19958 10.89 124 158 142
0.875051 -1.19517 10.85 124 159 139
0.883658 -1.19076 10.81 125 160 140
0.891348 -1.18526 10.76 124 163 139
0.89893 -1.17975 10.71 125 164 140
0.905551 -1.17314 10.65 126 165 141
0.912902 -1.16763 10.6 124 163 139
0.921017 -1.16323 10.56 122 159 134
0.929043 -1.15882 10.52 133 170 145
0.936982 -1.15441 10.48 125 162 137
0.945738 -1.15111 10.45 125 162 137
0.954429 -1.1478 10.42 122 162 136
0.965835 -1.1478 10.42 126 166 140
0.975365 -1.1456 10.4 114 156 130
0.9858 -1.1445 10.39 116 158 132
0.995253 -1.1423 10.37 128 171 142
1.0066 -1.1423 10.37 128 171 142
1.01697 -1.14119 10.36 131 172 143
1.02732 -1.14009 10.35 142 183 154
1.03765 -1.13899 10.34 138 174 146
1.04795 -1.13789 10.33 129 165 137
1.05926 -1.13789 10.33 136 174 146
1.06953 -1.13679 10.32 140 178 150
1.08082 -1.13679 10.32 139 177 149
1.09106 -1.13569 10.31 140 178 150
1.10235 -1.13569 10.31 126 167 138
1.11363 -1.13569 10.31 115 156 127
1.12274 -1.13348 10.29 126 164 136
1.134 -1.13348 10.29 142 180 152
1.14415 -1.13238 10.28 151 193 162
1.1554 -1.13238 10.28 118 160 129
1.16552 -1.13128 10.27 130 172 141
1.17562 -1.13018 10.26 130 172 141
1.18685 -1.13018 10.26 122 163 134
1.19808 -1.13018 10.26 132 173 144
1.20931 -1.13018 10.26 149 189 163
1.22054 -1.13018 10.26 166 206 180
1.23177 -1.13018 10.26 140 178 159
1.243 -1.13018 10.26 118 156 137
1.25301 -1.12908 10.25 118 158 139
1.26546 -1.13018 10.26 125 165 146
1.27669 -1.13018 10.26 120 165 145
1.28792 -1.13018 10.26 113 158 138
1.29915 -1.13018 10.26 111 156 136
1.31038 -1.13018 10.26 111 156 136
1.32161 -1.13018 10.26 116 156 137
1.33284 -1.13018 10.26 113 153 134
1.3467 -1.13238 10.28 122 152 135
1.35927 -1.13348 10.29 123 153 136
1.37053 -1.13348 10.29 132 148 138
1.38314 -1.13459 10.3 136 152 142
0.802864 -1.19964 11 131 140 131
0.813423 -1.19746 10.98 144 165 154
0.82469 -1.19637 10.97 129 150 139
0.835173 -1.19419 10.95 116 147 134
0.844837 -1.19092 10.92 117 148 135
0.854437 -1.18765 10.89 127 162 144
0.863175 -1.18329 10.85 124 159 141
0.871825 -1.17892 10.81 122 157 137
0.881205 -1.17565 10.78 125 160 140
0.888863 -1.1702 10.73 126 161 141
0.895572 -1.16365 10.67 126 161 141
0.903 -1.1582 10.62 129 164 139
0.910319 -1.15275 10.57 130 165 140
0.9184 -1.14839 10.53 137 169 145
0.927277 -1.14511 10.5 164 196 172
0.935194 -1.14075 10.46 157 192 167
0.944833 -1.13857 10.44 137 172 147
0.954429 -1.13639 10.42 134 173 149
0.963054 -1.13312 10.39 125 164 140
0.974427 -1.13312 10.39 123 164 140
0.983902 -1.13094 10.37 123 164 140
0.995253 -1.13094 10.37 123 165 139
1.00466 -1.12876 10.35 128 170 144
1.01599 -1.12876 10.35 132 173 144
1.02633 -1.12767 10.34 133 174 145
1.03664 -1.12657 10.33 135 173 145
1.04795 -1.12657 10.33 135 173 145
1.05823 -1.12548 10.32 135 173 145
1.06849 -1.12439 10.31 136 174 146
1.07978 -1.12439 10.31 133 174 145
1.09106 -1.12439 10.31 126 167 138
1.10235 -1.12439 10.31 114 152 124
1.11255 -1.1233 10.3 144 182 154
1.12274 -1.12221 10.29 190 226 198
1.134 -1.12221 10.29 188 224 196
1.14526 -1.12221 10.29 179 215 187
1.1554 -1.12112 10.28 127 163 135
1.16666 -1.12112 10.28 125 166 137
1.17676 -1.12003 10.27 123 164 135
1.188 -1.12003 10.27 120 160 134
1.19808 -1.11894 10.26 137 177 151
1.20931 -1.11894 10.26 167 203 180
1.22054 -1.11894 10.26 160 196 173
1.23177 -1.11894 10.26 132 170 151
1.24179 -1.11785 10.25 119 157 138
1.25301 -1.11785 10.25 124 164 145
1.26423 -1.11785 10.25 122 162 143
1.27545 -1.11785 10.25 105 150 130
1.28667 -1.11785 10.25 106 151 131
1.29789 -1.11785 10.25 107 152 132
1.30911 -1.11785 10.25 110 155 135
1.32161 -1.11894 10.26 114 156 137
1.33284 -1.11894 10.26 113 155 136
1.34539 -1.12003 10.27 118 152 136
1.35927 -1.12221 10.29 117 151 135
1.37053 -1.12221 10.29 130 155 140
1.38314 -1.1233 10.3 134 159 144
0.802134 -1.18652 10.99 147 157 145
0.813423 -1.18544 10.98 134 159 144
0.823187 -1.1822 10.95 130 155 140
0.833647 -1.18004 10.93 119 151 135
0.84329 -1.1768 10.9 116 148 132
0.852083 -1.17248 10.86 121 156 138
0.861584 -1.16924 10.83 121 156 138
0.870212 -1.16492 10.79 123 161 140
0.878753 -1.1606 10.75 124 162 141
0.886378 -1.15521 10.7 125 163 142
0.893054 -1.14873 10.64 118 156 135
0.900449 -1.14333 10.59 136 165 138
0.908596 -1.13901 10.55 165 194 167
0.916656 -1.13469 10.51 152 178 152
0.925511 -1.13145 10.48 175 201 175
0.933406 -1.12714 10.44 175 208 181
0.943023 -1.12498 10.42 139 172 145
0.952597 -1.12282 10.4 132 172 146
0.963054 -1.12174 10.39 128 168 142
0.972551 -1.11958 10.37 121 163 137
0.983902 -1.11958 10.37 118 160 134
0.993334 -1.11742 10.35 125 166 142
1.00466 -1.11742 10.35 137 178 154
1.01501 -1.11634 10.34 133 173 147
1.02534 -1.11526 10.33 133 173 147
1.03664 -1.11526 10.33 135 172 147
1.04694 -1.11418 10.32 135 172 147
1.05721 -1.1131 10.31 135 172 147
1.06849 -1.1131 10.31 133 170 145
1.07978 -1.1131 10.31 132 169 144
1.09 -1.11202 10.3 125 162 137
1.10128 -1.11202 10.3 131 166 141
1.11255 -1.11202 10.3 164 199 174
1.12274 -1.11094 10.29 201 233 209
1.134 -1.11094 10.29 199 231 207
1.14526 -1.11094 10.29 168 200 176
1.1554 -1.10986 10.28 134 166 142
1.16666 -1.10986 10.28 127 162 137
1.17791 -1.10986 10.28 120 155 130
1.188 -1.10878 10.27 119 154 129
1.19925 -1.10878 10.27 127 162 137
1.21049 -1.10878 10.27 137 173 150
1.22054 -1.1077 10.26 125 161 138
1.23177 -1.1077 10.26 117 155 136
1.24179 -1.10662 10.25 119 157 138
1.25301 -1.10662 10.25 124 164 145
1.26299 -1.10554 10.24 117 157 138
1.2742 -1.10554 10.24 100 145 125
1.28541 -1.10554 10.24 105 150 130
1.29662 -1.10554 10.24 105 150 130
1.30911 -1.10662 10.25 106 151 131
1.32033 -1.10662 10.25 109 150 133
1.33284 -1.1077 10.26 109 150 133
1.34539 -1.10878 10.27 113 152 135
1.35795 -1.10986 10.28 111 150 133
1.37053 -1.11094 10.29 117 143 131
1.38314 -1.11202 10.3 110 136 124
1.39577 -1.1131 10.31 136 143 134
0.791543 -1.17661 11.01 119 135 120
0.802134 -1.17448 10.99 140 156 141
0.813423 -1.17341 10.98 130 157 142
0.823187 -1.1702 10.95 130 157 142
0.832884 -1.167 10.92 119 154 136
0.84329 -1.16486 10.9 119 154 136
0.852083 -1.16058 10.86 119 154 136
0.860788 -1.15631 10.82 119 154 136
0.868599 -1.15097 10.77 122 160 139
0.876301 -1.14562 10.72 124 162 141
0 -0 0 126 162 139
0.890536 -1.13387 10.61 115 151 128
0.897899 -1.12852 10.56 147 172 144
0.906874 -1.12532 10.53 196 221 193
0.915783 -1.12211 10.5 178 198 169
0.923744 -1.11784 10.46 170 190 161
0.932512 -1.11463 10.43 143 175 144
0.942118 -1.11249 10.41 133 165 134
0.951681 -1.11036 10.39 129 168 138
0.962127 -1.10929 10.38 129 168 138
0.972551 -1.10822 10.37 125 166 137
0.982005 -1.10608 10.35 118 159 130
0.993334 -1.10608 10.35 130 166 143
1.00369 -1.10501 10.34 134 170 147
1.01403 -1.10394 10.33 140 176 153
1.02434 -1.10288 10.32 146 182 159
1.03464 -1.10181 10.31 134 168 145
1.04592 -1.10181 10.31 137 171 148
1.05618 -1.10074 10.3 133 169 146
1.06642 -1.09967 10.29 133 169 146
1.07768 -1.09967 10.29 133 169 146
1.08895 -1.09967 10.29 134 170 147
1.10021 -1.09967 10.29 135 169 146
1.11147 -1.09967 10.29 127 161 138
1.12274 -1.09967 10.29 169 200 178
1.134 -1.09967 10.29 157 188 166
1.14526 -1.09967 10.29 128 159 137
1.15653 -1.09967 10.29 128 159 137
1.16666 -1.0986 10.28 132 163 141
1.17791 -1.0986 10.28 131 162 140
1.18916 -1.0986 10.28 136 167 145
1.19925 -1.09753 10.27 138 169 147
1.21049 -1.09753 10.27 130 163 143
1.22054 -1.09646 10.26 114 147 127
1.23177 -1.09646 10.26 116 154 135
1.24179 -1.0954 10.25 119 157 138
1.25179 -1.09433 10.24 118 158 139
1.26299 -1.09433 10.24 114 154 135
1.2742 -1.09433 10.24 110 155 135
1.28541 -1.09433 10.24 106 151 131
1.29662 -1.09433 10.24 105 150 130
1.30783 -1.09433 10.24 104 149 129
1.31904 -1.09433 10.24 106 147 130
1.33155 -1.0954 10.25 104 145 128
1.34539 -1.09753 10.27 113 151 137
1.35795 -1.0986 10.28 120 158 144
1.37053 -1.09967 10.29 138 166 154
1.38314 -1.10074 10.3 122 150 138
1.39577 -1.10181 10.31 138 146 139
0.791543 -1.16455 11.01 136 157 139
0.802134 -1.16244 10.99 127 148 130
0.813423 -1.16138 10.98 117 150 132
0.823187 -1.15821 10.95 122 155 137
0.832884 -1.15504 10.92 120 155 137
0.842517 -1.15186 10.89 120 155 137
0.851298 -1.14763 10.85 119 154 136
0.859993 -1.1434 10.81 118 153 135
0.867793 -1.13811 10.76 120 158 137
0.875483 -1.13282 10.71 120 158 137
0.882236 -1.12648 10.65 119 155 132
0.888858 -1.12013 10.59 125 161 138
0.897048 -1.1159 10.55 152 177 147
0.905151 -1.11167 10.51 197 222 192
0.914039 -1.1085 10.48 148 171 139
0.922861 -1.10532 10.45 132 155 123
0.931618 -1.10215 10.42 129 165 129
0.941213 -1.10003 10.4 136 172 136
0.951681 -1.09898 10.39 127 166 134
0.9612 -1.09686 10.37 127 166 134
0.971613 -1.0958 10.36 125 163 135
0.982005 -1.09474 10.35 110 148 120
0.992374 -1.09369 10.34 159 194 169
1.00272 -1.09263 10.33 144 179 154
1.01403 -1.09263 10.33 169 199 180
1.02335 -1.09051 10.31 172 202 183
1.03464 -1.09051 10.31 136 166 147
1.04491 -1.08946 10.3 130 160 141
1.05516 -1.0884 10.29 132 167 147
1.06642 -1.0884 10.29 132 167 147
1.07768 -1.0884 10.29 132 167 147
1.08895 -1.0884 10.29 132 167 147
1.09914 -1.08734 10.28 133 168 148
1.11039 -1.08734 10.28 128 163 143
1.12274 -1.0884 10.29 132 167 147
1.134 -1.0884 10.29 118 153 133
1.14526 -1.0884 10.29 121 151 132
1.15653 -1.0884 10.29 129 159 140
1.16779 -1.0884 10.29 135 164 142
1.17905 -1.0884 10.29 132 161 139
1.18916 -1.08734 10.28 134 161 139
1.20041 -1.08734 10.28 161 188 166
1.21049 -1.08628 10.27 165 194 179
1.22054 -1.08523 10.26 131 160 145
1.23177 -1.08523 10.26 120 154 138
1.24179 -1.08417 10.25 124 158 142
1.25179 -1.08311 10.24 118 158 139
1.26299 -1.08311 10.24 117 157 138
1.2742 -1.08311 10.24 113 155 136
1.28541 -1.08311 10.24 113 155 136
1.29662 -1.08311 10.24 109 151 132
1.30783 -1.08311 10.24 108 150 131
1.31904 -1.08311 10.24 108 149 132
1.33155 -1.08417 10.25 107 148 131
1.34408 -1.08523 10.26 110 149 132
1.35795 -1.08734 10.28 113 152 135
1.3692 -1.08734 10.28 117 150 137
1.3818 -1.0884 10.29 110 143 130
1.39577 -1.09051 10.31 134 150 140
1.40842 -1.09157 10.32 131 147 137
0.780907 -1.15459 11.03 100 106 88
0.791543 -1.15249 11.01 134 162 143
0.803594 -1.15249 11.01 121 149 130
0.813423 -1.14935 10.98 114 149 129
0.823939 -1.14726 10.96 118 153 133
0.833647 -1.14412 10.93 120 155 135
0.842517 -1.13993 10.89 120 155 135
0.850514 -1.1347 10.84 119 157 136
0.858401 -1.12947 10.79 119 157 136
0 -0 0 124 162 141
0.873031 -1.11795 10.68 120 158 137
0.879751 -1.11167 10.62 111 150 126
0.887179 -1.10644 10.57 122 161 137
0.894497 -1.1012 10.52 149 179 150
0.903429 -1.09806 10.49 168 198 169
0.912295 -1.09492 10.46 132 160 127
0.921978 -1.09283 10.44 135 163 130
0.931618 -1.09074 10.42 130 168 133
0.940308 -1.08759 10.39 130 168 133
0.950765 -1.08655 10.38 125 167 134
0.9612 -1.0855 10.37 125 167 134
0.971613 -1.08445 10.36 125 164 134
0.982005 -1.08341 10.35 126 165 135
0.992374 -1.08236 10.34 184 215 188
1.00272 -1.08131 10.33 184 215 188
1.01305 -1.08027 10.32 187 216 194
1.02335 -1.07922 10.31 185 214 192
1.03363 -1.07817 10.3 157 185 166
1.04389 -1.07713 10.29 139 167 148
1.05516 -1.07713 10.29 134 164 145
1.06538 -1.07608 10.28 133 163 144
1.07664 -1.07608 10.28 132 165 145
1.08789 -1.07608 10.28 130 163 143
1.09914 -1.07608 10.28 141 174 156
1.11039 -1.07608 10.28 142 175 157
1.12165 -1.07608 10.28 138 170 154
1.134 -1.07713 10.29 134 166 150
1.14526 -1.07713 10.29 125 155 136
1.15653 -1.07713 10.29 136 166 147
1.16779 -1.07713 10.29 155 182 160
1.17905 -1.07713 10.29 148 175 153
1.19032 -1.07713 10.29 165 187 166
1.20041 -1.07608 10.28 175 197 176
1.21167 -1.07608 10.28 179 201 187
1.22173 -1.07503 10.27 160 182 168
1.23177 -1.07399 10.26 128 162 146
1.24179 -1.07294 10.25 124 158 142
1.25179 -1.07189 10.24 118 158 139
1.26299 -1.07189 10.24 117 157 138
1.2742 -1.07189 10.24 111 153 134
1.28416 -1.07085 10.23 111 153 134
1.29535 -1.07085 10.23 109 151 132
1.30655 -1.07085 10.23 108 150 131
1.31904 -1.07189 10.24 109 151 132
1.33025 -1.07189 10.24 108 150 131
1.34408 -1.07399 10.26 108 149 132
1.35663 -1.07503 10.27 109 150 133
1.3692 -1.07608 10.28 115 148 135
1.3818 -1.07713 10.29 117 150 137
1.39577 -1.07922 10.31 126 150 138
1.40842 -1.08027 10.32 129 153 141
0.781615 -1.14354 11.04 128 138 119
0.792262 -1.14147 11.02 131 161 142
0.803594 -1.14043 11.01 129 159 140
0.814164 -1.13836 10.99 120 155 135
0.82469 -1.13629 10.97 119 154 134
0.833647 -1.13215 10.93 118 156 135
0.842517 -1.12801 10.89 118 156 135
0.850514 -1.12283 10.84 119 157 136
0.857606 -1.11661 10.78 127 165 144
0.864567 -1.1104 10.72 125 163 142
0.871396 -1.10418 10.66 122 160 139
0.878094 -1.09797 10.6 116 155 131
0.884661 -1.09175 10.54 119 158 134
0.892797 -1.08761 10.5 128 165 135
0.902568 -1.08554 10.48 135 172 142
0.911423 -1.08243 10.45 131 165 134
0.921095 -1.08036 10.43 132 166 135
0.930723 -1.07829 10.41 128 168 133
0.940308 -1.07621 10.39 128 168 133
0.950765 -1.07518 10.38 126 168 135
0.9612 -1.07414 10.37 124 166 133
0.970676 -1.07207 10.35 127 164 134
0.982005 -1.07207 10.35 130 167 137
0.991414 -1.07 10.33 172 199 171
1.00272 -1.07 10.33 171 198 170
1.01207 -1.06793 10.31 186 214 190
1.02236 -1.06689 10.3 163 191 167
1.03263 -1.06586 10.29 141 170 148
1.04288 -1.06482 10.28 149 178 156
1.05413 -1.06482 10.28 143 172 150
1.06435 -1.06378 10.27 136 165 143
1.07559 -1.06378 10.27 141 169 150
1.08577 -1.06275 10.26 136 164 145
1.097 -1.06275 10.26 164 193 178
1.10931 -1.06378 10.27 166 195 180
1.12165 -1.06482 10.28 145 173 161
1.1329 -1.06482 10.28 129 157 145
1.14526 -1.06586 10.29 124 152 133
1.15653 -1.06586 10.29 143 171 152
1.16779 -1.06586 10.29 170 197 175
1.17905 -1.06586 10.29 158 185 163
1.19032 -1.06586 10.29 171 191 169
1.20041 -1.06482 10.28 163 183 161
1.21167 -1.06482 10.28 170 187 174
1.22173 -1.06378 10.27 158 175 162
1.23177 -1.06275 10.26 129 161 145
1.24179 -1.06171 10.25 114 146 130
1.25301 -1.06171 10.25 116 156 137
1.26299 -1.06068 10.24 117 157 138
1.2742 -1.06068 10.24 106 148 129
1.28541 -1.06068 10.24 109 151 132
1.29662 -1.06068 10.24 112 154 135
1.30783 -1.06068 10.24 111 153 134
1.31904 -1.06068 10.24 111 153 134
1.33155 -1.06171 10.25 108 150 131
1.34408 -1.06275 10.26 108 149 132
1.35531 -1.06275 10.26 109 150 133
1.3692 -1.06482 10.28 112 149 132
1.3818 -1.06586 10.29 115 152 135
1.39441 -1.06689 10.3 123 151 139
1.40705 -1.06793 10.31 117 145 133
0.770228 -1.13247 11.05 132 143 127
0.781615 -1.13145 11.04 121 132 116
0.792981 -1.13042 11.03 119 149 130
0.803594 -1.12837 11.01 119 149 130
0.814905 -1.12735 11 110 148 127
0.825442 -1.1253 10.98 117 155 134
0.835173 -1.12223 10.95 118 156 135
0.84329 -1.1171 10.9 118 156 135
0.850514 -1.11095 10.84 119 157 136
0.857606 -1.1048 10.78 125 163 142
0.86376 -1.09763 10.71 125 163 142
0.871396 -1.0925 10.66 120 158 137
0.878094 -1.08636 10.6 128 167 143
0.884661 -1.08021 10.54 130 169 145
0.891947 -1.07508 10.49 127 168 139
0.901706 -1.07303 10.47 122 163 134
0.91055 -1.06996 10.44 124 166 135
0.920212 -1.06791 10.42 126 168 137
0.929829 -1.06586 10.4 126 168 137
0.940308 -1.06483 10.39 125 167 136
0.949849 -1.06278 10.37 123 167 136
0.960273 -1.06176 10.36 122 166 135
0.970676 -1.06073 10.35 127 166 136
0.981056 -1.05971 10.34 120 159 129
0.991414 -1.05868 10.33 130 160 131
1.00175 -1.05766 10.32 137 167 138
1.01207 -1.05663 10.31 142 173 146
1.02137 -1.05458 10.29 125 156 129
1.03163 -1.05356 10.28 127 157 133
1.04288 -1.05356 10.28 157 187 163
1.05208 -1.05151 10.26 157 184 162
1.06331 -1.05151 10.26 144 171 149
1.07454 -1.05151 10.26 142 169 147
1.08577 -1.05151 10.26 151 178 156
1.097 -1.05151 10.26 166 194 177
1.10823 -1.05151 10.26 163 191 174
1.12055 -1.05253 10.27 148 177 162
1.1329 -1.05356 10.28 130 159 144
1.14415 -1.05356 10.28 120 148 129
1.15653 -1.05458 10.29 127 155 136
1.16779 -1.05458 10.29 163 190 162
1.17905 -1.05458 10.29 171 198 170
1.19032 -1.05458 10.29 219 239 210
1.20041 -1.05356 10.28 173 193 164
1.21167 -1.05356 10.28 146 165 145
1.22173 -1.05253 10.27 127 146 126
1.23177 -1.05151 10.26 123 152 137
1.243 -1.05151 10.26 124 153 138
1.25301 -1.05049 10.25 116 156 137
1.26299 -1.04946 10.24 115 155 136
1.2742 -1.04946 10.24 103 143 124
1.28541 -1.04946 10.24 110 150 131
1.29662 -1.04946 10.24 112 154 135
1.30783 -1.04946 10.24 108 150 131
1.31904 -1.04946 10.24 108 150 131
1.33025 -1.04946 10.24 111 153 134
1.34408 -1.05151 10.26 109 151 132
1.35531 -1.05151 10.26 109 151 132
1.3692 -1.05356 10.28 113 151 132
1.38045 -1.05356 10.28 115 153 134
1.39306 -1.05458 10.29 120 152 136
1.40705 -1.05663 10.31 116 148 132
0.770925 -1.12138 11.06 145 159 142
0.782323 -1.12037 11.05 125 139 122
0.7937 -1.11936 11.04 112 142 123
0.805054 -1.11834 11.03 118 148 129
0.815646 -1.11631 11.01 116 154 133
0.825442 -1.11327 10.98 117 155 134
0.835173 -1.11023 10.95 118 156 135
0.84329 -1.10516 10.9 120 158 137
0.850514 -1.09908 10.84 122 160 139
0.85681 -1.09198 10.77 123 161 140
0 -0 0 124 162 141
0.869761 -1.0788 10.64 122 160 139
0.877266 -1.07373 10.59 116 155 131
0.883822 -1.06765 10.53 131 170 146
0.891947 -1.06359 10.49 126 167 138
0.900845 -1.06055 10.46 125 166 137
0.91055 -1.05852 10.44 117 160 131
0.920212 -1.05649 10.42 125 168 139
0.929829 -1.05447 10.4 123 168 139
0.940308 -1.05345 10.39 119 164 135
0.949849 -1.05142 10.37 119 164 135
0.960273 -1.05041 10.36 120 165 136
0.970676 -1.0494 10.35 126 168 137
0.981056 -1.04838 10.34 130 172 141
0.991414 -1.04737 10.33 137 171 142
1.00078 -1.04534 10.31 140 174 145
1.01108 -1.04433 10.3 143 176 149
1.02137 -1.04331 10.29 128 161 134
1.03163 -1.0423 10.28 119 150 128
1.04186 -1.04129 10.27 164 195 173
1.05208 -1.04027 10.26 167 196 174
1.06227 -1.03926 10.25 150 179 157
1.07245 -1.03824 10.24 165 190 167
1.08365 -1.03824 10.24 188 213 190
1.09486 -1.03824 10.24 175 204 182
1.10715 -1.03926 10.25 154 183 161
1.11946 -1.04027 10.26 123 153 136
1.1318 -1.04129 10.27 126 156 139
1.14415 -1.0423 10.28 129 159 140
1.1554 -1.0423 10.28 123 153 134
1.16666 -1.0423 10.28 130 157 129
1.17791 -1.0423 10.28 182 209 181
1.18916 -1.0423 10.28 211 232 200
1.20041 -1.0423 10.28 174 195 163
1.21167 -1.0423 10.28 139 162 139
1.22173 -1.04129 10.27 140 163 140
1.23177 -1.04027 10.26 119 154 136
1.243 -1.04027 10.26 120 155 137
1.25301 -1.03926 10.25 118 156 137
1.26423 -1.03926 10.25 113 151 132
1.2742 -1.03824 10.24 104 144 123
1.28541 -1.03824 10.24 110 150 129
1.29662 -1.03824 10.24 109 149 128
1.30783 -1.03824 10.24 107 147 126
1.31904 -1.03824 10.24 107 147 126
1.33025 -1.03824 10.24 108 148 127
1.34277 -1.03926 10.25 111 151 130
1.35531 -1.04027 10.26 110 150 129
1.36787 -1.04129 10.27 114 149 129
1.38045 -1.0423 10.28 115 150 130
1.39306 -1.04331 10.29 119 152 134
1.40569 -1.04433 10.3 119 152 134
0.771622 -1.11027 11.07 152 168 153
0.783031 -1.10927 11.06 129 145 130
0.794418 -1.10827 11.05 110 138 119
0.805784 -1.10726 11.04 114 142 123
0.816387 -1.10526 11.02 113 148 128
0.826194 -1.10225 10.99 119 154 134
0.835935 -1.09924 10.96 120 158 137
0.84329 -1.09322 10.9 120 158 137
0.850514 -1.0872 10.84 122 160 139
0 -0 0 123 161 140
0 -0 0 123 161 140
0.869761 -1.06715 10.64 123 161 140
0.877266 -1.06213 10.59 123 161 140
0.882982 -1.05511 10.52 124 162 141
0.891096 -1.0511 10.48 120 159 135
0.900845 -1.04909 10.46 126 165 141
0.909678 -1.04608 10.43 124 166 140
0.920212 -1.04508 10.42 123 165 139
0.928935 -1.04207 10.39 115 160 131
0.939403 -1.04107 10.38 116 161 132
0.949849 -1.04007 10.37 116 161 132
0.959346 -1.03806 10.35 120 165 136
0.970676 -1.03806 10.35 126 168 137
0.980107 -1.03605 10.33 131 173 142
0.990455 -1.03505 10.32 135 174 144
1.00078 -1.03405 10.31 136 175 145
1.01108 -1.03304 10.3 137 174 144
1.02137 -1.03204 10.29 121 158 128
1.03163 -1.03104 10.28 126 158 134
1.04085 -1.02903 10.26 164 196 172
1.05208 -1.02903 10.26 157 189 165
1.06227 -1.02803 10.25 130 162 138
1.07245 -1.02703 10.24 152 183 156
1.08365 -1.02703 10.24 155 186 159
1.09486 -1.02703 10.24 131 161 137
1.10715 -1.02803 10.25 135 165 141
1.11946 -1.02903 10.26 124 155 133
1.13069 -1.02903 10.26 131 162 140
1.14304 -1.03004 10.27 129 159 140
1.1554 -1.03104 10.28 128 158 139
1.16666 -1.03104 10.28 125 154 127
1.17791 -1.03104 10.28 136 165 138
1.18916 -1.03104 10.28 168 190 161
1.20041 -1.03104 10.28 144 166 137
1.21049 -1.03004 10.27 127 155 131
1.22173 -1.03004 10.27 123 151 127
1.23177 -1.02903 10.26 118 153 133
1.243 -1.02903 10.26 122 157 137
1.25301 -1.02803 10.25 116 156 135
1.26423 -1.02803 10.25 115 155 134
1.27545 -1.02803 10.25 116 156 135
1.28667 -1.02803 10.25 111 151 130
1.29662 -1.02703 10.24 103 143 122
1.30783 -1.02703 10.24 107 147 126
1.31904 -1.02703 10.24 106 146 125
1.33155 -1.02803 10.25 107 147 126
1.34408 -1.02903 10.26 111 149 128
1.35531 -1.02903 10.26 112 150 129
1.36787 -1.03004 10.27 114 149 129
1.38045 -1.03104 10.28 114 149 129
1.39306 -1.03204 10.29 119 152 134
1.40569 -1.03304 10.3 121 154 136
0.760191 -1.09914 11.08 96 114 105
0.772319 -1.09914 11.08 153 171 156
0.783739 -1.09815 11.07 134 152 137
0.794418 -1.09616 11.05 96 124 107
0.805784 -1.09517 11.04 104 132 115
0.816387 -1.09319 11.02 104 139 121
0.826946 -1.0912 11 121 156 138
0.835935 -1.08723 10.96 123 163 142
0.84329 -1.08128 10.9 120 160 139
0.850514 -1.07533 10.84 118 158 137
0.85681 -1.06839 10.77 120 160 139
0.86376 -1.06243 10.71 122 162 141
0.869761 -1.05549 10.64 121 161 140
0.877266 -1.05053 10.59 121 161 140
0.883822 -1.04458 10.53 120 160 139
0.891947 -1.04061 10.49 121 162 138
0.900845 -1.03763 10.46 114 155 131
0.909678 -1.03466 10.43 121 162 138
0.919329 -1.03267 10.41 122 163 139
0.928935 -1.03069 10.39 119 163 137
0.939403 -1.0297 10.38 112 156 130
0.949849 -1.02871 10.37 114 158 132
0.959346 -1.02672 10.35 123 167 141
0.969738 -1.02573 10.34 124 168 137
0.980107 -1.02474 10.33 137 181 150
0.990455 -1.02375 10.32 144 186 155
1.00078 -1.02275 10.31 135 177 146
1.01108 -1.02176 10.3 132 171 141
1.02137 -1.02077 10.29 128 167 137
1.03163 -1.01978 10.28 127 163 135
1.04186 -1.01879 10.27 136 172 144
1.05208 -1.01779 10.26 131 164 137
1.06227 -1.0168 10.25 129 162 135
1.07245 -1.01581 10.24 122 155 128
1.08471 -1.0168 10.25 115 148 121
1.09593 -1.0168 10.25 119 150 123
1.10715 -1.0168 10.25 130 161 134
1.11946 -1.01779 10.26 131 161 137
1.13069 -1.01779 10.26 132 162 138
1.14192 -1.01779 10.26 130 162 138
1.15428 -1.01879 10.27 125 157 133
1.16552 -1.01879 10.27 132 161 139
1.17791 -1.01978 10.28 132 161 139
1.18916 -1.01978 10.28 132 159 131
1.19925 -1.01879 10.27 132 159 131
1.21049 -1.01879 10.27 132 161 134
1.22054 -1.01779 10.26 132 161 134
1.23177 -1.01779 10.26 132 168 145
1.243 -1.01779 10.26 128 164 141
1.25301 -1.0168 10.25 116 157 133
1.26423 -1.0168 10.25 114 155 131
1.27545 -1.0168 10.25 115 156 132
1.28667 -1.0168 10.25 114 155 131
1.29789 -1.0168 10.25 107 148 124
1.30911 -1.0168 10.25 109 150 126
1.32033 -1.0168 10.25 107 148 124
1.33155 -1.0168 10.25 107 148 124
1.34408 -1.01779 10.26 111 150 126
1.35663 -1.01879 10.27 112 151 127
1.3692 -1.01978 10.28 115 150 130
1.38045 -1.01978 10.28 115 150 130
1.39306 -1.02077 10.29 117 152 134
1.40705 -1.02275 10.31 119 154 136
0.760877 -1.08798 11.09 94 120 113
0.772319 -1.087 11.08 144 167 151
0.784447 -1.087 11.08 156 179 163
0.795137 -1.08504 11.06 117 145 128
0.806514 -1.08406 11.05 100 128 111
0.817127 -1.0821 11.03 104 142 123
0.827697 -1.08013 11.01 111 149 130
0.837461 -1.07719 10.98 115 153 132
0.844837 -1.07131 10.92 118 156 135
0.851298 -1.06444 10.85 120 158 137
0.857606 -1.05757 10.78 124 162 141
0.86376 -1.0507 10.71 124 162 141
0.869761 -1.04384 10.64 123 161 140
0.876437 -1.03795 10.58 120 160 139
0.882982 -1.03206 10.52 128 168 147
0.891947 -1.02912 10.49 131 172 148
0.900845 -1.02618 10.46 117 158 134
0.91055 -1.02422 10.44 126 167 143
0.920212 -1.02225 10.42 132 173 149
0.928935 -1.01931 10.39 132 173 149
0.939403 -1.01833 10.38 117 158 134
0.948933 -1.01637 10.36 118 160 134
0.959346 -1.01539 10.35 125 167 141
0.969738 -1.0144 10.34 124 167 138
0.980107 -1.01342 10.33 128 171 142
0.990455 -1.01244 10.32 138 182 151
1.00078 -1.01146 10.31 124 168 137
1.01108 -1.01048 10.3 128 170 139
1.02137 -1.0095 10.29 125 167 136
1.03163 -1.00852 10.28 130 167 137
1.04288 -1.00852 10.28 129 166 136
1.05311 -1.00754 10.27 129 162 135
1.06331 -1.00656 10.26 132 165 138
1.07454 -1.00656 10.26 132 162 138
1.08577 -1.00656 10.26 132 162 138
1.09593 -1.00558 10.25 133 163 139
1.10823 -1.00656 10.26 131 161 137
1.11946 -1.00656 10.26 130 162 138
1.13069 -1.00656 10.26 131 163 139
1.14304 -1.00754 10.27 131 163 139
1.15428 -1.00754 10.27 126 158 134
1.16552 -1.00754 10.27 138 168 144
1.17676 -1.00754 10.27 171 201 177
1.188 -1.00754 10.27 130 159 132
1.19808 -1.00656 10.26 135 164 137
1.20931 -1.00656 10.26 131 162 135
1.22054 -1.00656 10.26 132 163 136
1.23177 -1.00656 10.26 123 162 138
1.243 -1.00656 10.26 118 157 133
1.25301 -1.00558 10.25 116 157 133
1.26423 -1.00558 10.25 114 155 131
1.27545 -1.00558 10.25 117 158 134
1.28667 -1.00558 10.25 122 163 139
1.29789 -1.00558 10.25 115 156 132
1.30911 -1.00558 10.25 109 150 126
1.32033 -1.00558 10.25 109 147 126
1.33155 -1.00558 10.25 109 147 126
1.34408 -1.00656 10.26 110 148 127
1.35531 -1.00656 10.26 111 149 128
1.3692 -1.00852 10.28 115 150 130
1.38045 -1.00852 10.28 115 150 130
1.39306 -1.0095 10.29 117 152 134
1.40569 -1.01048 10.3 119 154 136
0.761563 -1.07681 11.1 85 122 117
0.773016 -1.07584 11.09 117 146 131
0.784447 -1.07487 11.08 155 184 169
0.795856 -1.0739 11.07 151 184 166
0.807244 -1.07293 11.06 113 146 128
0.817868 -1.07099 11.04 91 129 110
0.827697 -1.06807 11.01 99 137 118
0.837461 -1.06516 10.98 103 141 122
0.844837 -1.05934 10.92 110 148 129
0.851298 -1.05255 10.85 119 157 138
0.858401 -1.04673 10.79 135 173 154
0.86376 -1.03897 10.71 129 169 150
0.869761 -1.03218 10.64 121 161 142
0.876437 -1.02636 10.58 119 161 140
0.882982 -1.02054 10.52 121 163 142
0.891947 -1.01763 10.49 124 167 143
0.900845 -1.01472 10.46 121 164 140
0.91055 -1.01278 10.44 121 164 140
0.920212 -1.01084 10.42 122 165 141
0.928935 -1.00793 10.39 123 166 142
0.939403 -1.00696 10.38 122 165 141
0.948933 -1.00502 10.36 123 166 142
0.959346 -1.00405 10.35 124 167 143
0.969738 -1.00308 10.34 124 168 142
0.980107 -1.00211 10.33 127 171 145
0.991414 -1.00211 10.33 130 174 148
1.00078 -1.00017 10.31 121 165 139
1.01207 -1.00017 10.31 130 169 139
1.02236 -0.999198 10.3 136 175 145
1.03263 -0.998228 10.29 159 191 162
1.04288 -0.997258 10.28 157 189 160
1.05413 -0.997258 10.28 138 163 140
1.06435 -0.996288 10.27 135 160 137
1.07454 -0.995318 10.26 125 150 127
1.08577 -0.995318 10.26 129 154 131
1.097 -0.995318 10.26 127 157 133
1.10823 -0.995318 10.26 130 160 136
1.11946 -0.995318 10.26 132 163 141
1.13069 -0.995318 10.26 132 163 141
1.14304 -0.996288 10.27 132 163 141
1.15428 -0.996288 10.27 129 160 138
1.16552 -0.996288 10.27 138 166 142
1.17562 -0.995318 10.26 182 210 186
1.18685 -0.995318 10.26 159 188 161
1.19808 -0.995318 10.26 141 170 143
1.20931 -0.995318 10.26 124 156 132
1.22054 -0.995318 10.26 126 158 134
1.23057 -0.994348 10.25 122 161 137
1.24179 -0.994348 10.25 115 154 130
1.25179 -0.993378 10.24 114 156 135
1.26299 -0.993378 10.24 112 154 133
1.2742 -0.993378 10.24 113 155 134
1.28541 -0.993378 10.24 112 154 133
1.29789 -0.994348 10.25 109 151 130
1.30911 -0.994348 10.25 106 148 127
1.32033 -0.994348 10.25 107 147 126
1.33155 -0.994348 10.25 106 146 125
1.34408 -0.995318 10.26 107 147 126
1.35531 -0.995318 10.26 108 148 127
1.3692 -0.997258 10.28 113 151 130
1.38045 -0.997258 10.28 113 151 130
1.39306 -0.998228 10.29 117 152 134
1.40569 -0.999198 10.3 117 152 134
1.41834 -1.00017 10.31 131 148 135
0.750763 -1.06657 11.12 67 114 112
0.762249 -1.06561 11.11 76 123 121
0.773713 -1.06465 11.1 106 138 127
0.785155 -1.06369 11.09 122 154 143
0.796575 -1.06273 11.08 144 178 162
0.807244 -1.06081 11.06 141 175 159
0.817868 -1.05889 11.04 125 163 144
0.827697 -1.05602 11.01 94 132 113
0.837461 -1.05314 10.98 98 136 117
0 -0 0 104 142 123
0.851298 -1.04067 10.85 109 147 128
0 -0 0 120 158 139
0 -0 0 124 163 146
0.869761 -1.02053 10.64 117 156 139
0.875609 -1.01381 10.57 120 162 143
0.882982 -1.00902 10.52 120 162 143
0.891947 -1.00614 10.49 119 161 140
0.900845 -1.00326 10.46 118 160 139
0.909678 -1.00038 10.43 118 161 137
0.919329 -0.998466 10.41 116 159 135
0.928935 -0.996548 10.39 122 165 141
0.939403 -0.995589 10.38 133 176 152
0.948933 -0.993671 10.36 128 171 147
0.959346 -0.992712 10.35 127 170 146
0.969738 -0.991753 10.34 127 170 146
0.980107 -0.990793 10.33 127 170 146
0.991414 -0.990793 10.33 126 170 144
1.00175 -0.989834 10.32 123 167 141
1.01207 -0.988875 10.31 130 164 135
1.02335 -0.988875 10.31 151 185 156
1.03363 -0.987916 10.3 169 194 166
1.04389 -0.986957 10.29 182 207 179
1.05516 -0.986957 10.29 151 170 145
1.06538 -0.985998 10.28 144 163 138
1.07664 -0.985998 10.28 144 163 138
1.08683 -0.985039 10.27 143 162 137
1.09807 -0.985039 10.27 139 165 139
1.10931 -0.985039 10.27 140 166 140
1.12055 -0.985039 10.27 140 170 146
1.1318 -0.985039 10.27 139 169 145
1.14304 -0.985039 10.27 135 165 141
1.15428 -0.985039 10.27 132 162 138
1.16439 -0.984079 10.26 130 161 134
1.17562 -0.984079 10.26 176 207 180
1.18685 -0.984079 10.26 191 220 193
1.19691 -0.98312 10.25 162 191 164
1.20695 -0.982161 10.24 123 155 131
1.21816 -0.982161 10.24 130 162 138
1.22937 -0.982161 10.24 118 156 135
1.24058 -0.982161 10.24 111 149 128
1.25179 -0.982161 10.24 112 154 135
1.26299 -0.982161 10.24 112 154 135
1.2742 -0.982161 10.24 108 150 131
1.28541 -0.982161 10.24 109 151 132
1.29662 -0.982161 10.24 108 150 131
1.30911 -0.98312 10.25 106 148 129
1.32033 -0.98312 10.25 107 149 130
1.33155 -0.98312 10.25 107 149 130
1.34408 -0.984079 10.26 109 149 130
1.35531 -0.984079 10.26 111 151 132
1.36787 -0.985039 10.27 106 146 127
1.38045 -0.985998 10.28 108 148 129
1.39306 -0.986957 10.29 115 149 133
1.40432 -0.986957 10.29 114 148 132
1.41696 -0.987916 10.3 125 142 129
0.751438 -1.05533 11.13 83 132 132
0.762935 -1.05439 11.12 89 138 138
0.77441 -1.05344 11.11 106 142 133
0.785863 -1.05249 11.1 107 143 134
0.796575 -1.05059 11.08 116 153 136
0.807974 -1.04964 11.07 135 172 155
0.817868 -1.0468 11.04 148 185 168
0.828449 -1.0449 11.02 139 176 159
0.837461 -1.04111 10.98 113 151 132
0.844064 -1.03447 10.91 105 143 124
0.850514 -1.02784 10.84 105 141 127
0.856015 -1.02025 10.76 110 146 132
0.862147 -1.01361 10.69 107 145 131
0.868126 -1.00698 10.62 111 149 135
0.875609 -1.00223 10.57 114 155 138
0.882143 -0.996546 10.51 118 159 142
0.891096 -0.993701 10.48 118 160 141
0.899984 -0.990856 10.45 120 162 143
0.909678 -0.98896 10.43 121 163 144
0.919329 -0.987064 10.41 119 161 142
0.928935 -0.985167 10.39 122 165 141
0.938498 -0.983271 10.37 127 170 146
0.948933 -0.982323 10.36 129 172 148
0.959346 -0.981375 10.35 127 170 146
0.969738 -0.980426 10.34 121 165 139
0.980107 -0.979478 10.33 123 167 141
0.991414 -0.979478 10.33 123 167 141
1.00175 -0.97853 10.32 122 166 140
1.01207 -0.977582 10.31 132 164 135
1.02335 -0.977582 10.31 191 223 194
1.03464 -0.977582 10.31 206 226 199
1.04491 -0.976634 10.3 194 214 187
1.05516 -0.975685 10.29 140 154 130
1.06642 -0.975685 10.29 148 162 138
1.07664 -0.974737 10.28 194 208 184
1.08789 -0.974737 10.28 205 219 195
1.09914 -0.974737 10.28 189 213 187
1.10931 -0.973789 10.27 145 169 143
1.12055 -0.973789 10.27 150 179 152
1.1318 -0.973789 10.27 154 183 156
1.14304 -0.973789 10.27 150 181 154
1.15316 -0.972841 10.26 146 177 150
1.16439 -0.972841 10.26 136 166 142
1.17447 -0.971893 10.25 159 189 165
1.18453 -0.970945 10.24 188 218 194
1.19574 -0.970945 10.24 152 182 158
1.20695 -0.970945 10.24 124 155 133
1.21816 -0.970945 10.24 131 162 140
1.22817 -0.969996 10.23 113 151 130
1.23937 -0.969996 10.23 111 149 128
1.25056 -0.969996 10.23 111 153 134
1.26176 -0.969996 10.23 111 153 134
1.2742 -0.970945 10.24 107 149 130
1.28541 -0.970945 10.24 111 153 134
1.29662 -0.970945 10.24 111 153 134
1.30783 -0.970945 10.24 109 151 132
1.31904 -0.970945 10.24 105 147 128
1.33155 -0.971893 10.25 104 146 127
1.34277 -0.971893 10.25 104 146 127
1.35531 -0.972841 10.26 99 141 122
1.36787 -0.973789 10.27 93 132 115
1.38045 -0.974737 10.28 107 146 129
1.39171 -0.974737 10.28 112 148 134
1.40432 -0.975685 10.29 111 147 133
1.41559 -0.975685 10.29 124 143 132
0.752113 -1.04408 11.14 106 156 153
0.763621 -1.04314 11.13 99 149 146
0.77441 -1.04127 11.11 102 146 133
0.786571 -1.04127 11.11 102 146 133
0.797294 -1.03939 11.09 104 143 126
0.808703 -1.03846 11.08 114 153 136
0.818609 -1.03564 11.05 113 153 134
0.829953 -1.03471 11.04 142 182 163
0.838224 -1.03002 10.99 145 185 166
0.844837 -1.02346 10.92 132 172 153
0.850514 -1.01596 10.84 118 157 140
0 -0 0 115 154 137
0 -0 0 101 140 123
0.866491 -0.993468 10.6 106 145 128
0.873124 -0.987845 10.54 107 146 129
0.881304 -0.984096 10.5 116 155 138
0.891096 -0.982222 10.48 112 153 136
0.899984 -0.97941 10.45 115 156 139
0.908806 -0.976598 10.42 116 156 137
0.918446 -0.974724 10.4 109 149 130
0.928935 -0.973787 10.39 118 156 135
0.938498 -0.971912 10.37 128 166 145
0.948933 -0.970975 10.36 128 169 145
0.959346 -0.970038 10.35 120 161 137
0.969738 -0.9691 10.34 119 163 137
0.980107 -0.968163 10.33 122 166 140
0.991414 -0.968163 10.33 120 164 138
1.00272 -0.968163 10.33 119 163 137
1.01403 -0.968163 10.33 140 171 144
1.02434 -0.967226 10.32 191 222 195
1.03464 -0.966289 10.31 203 224 199
1.04592 -0.966289 10.31 167 188 163
1.05721 -0.966289 10.31 140 157 132
1.06746 -0.965351 10.3 142 159 134
1.07768 -0.964414 10.29 189 207 180
1.08895 -0.964414 10.29 204 222 195
1.09914 -0.963477 10.28 183 204 179
1.11039 -0.963477 10.28 165 186 161
1.12055 -0.96254 10.27 166 195 168
1.1318 -0.96254 10.27 159 188 161
1.14304 -0.96254 10.27 143 176 149
1.15316 -0.961602 10.26 136 169 142
1.16325 -0.960665 10.25 137 172 147
1.17332 -0.959728 10.24 130 165 140
1.18453 -0.959728 10.24 137 171 148
1.19457 -0.958791 10.23 126 160 137
1.20459 -0.957854 10.22 126 162 139
1.21578 -0.957854 10.22 125 161 138
1.22697 -0.957854 10.22 118 158 137
1.23815 -0.957854 10.22 109 149 128
1.24934 -0.957854 10.22 109 151 132
1.26053 -0.957854 10.22 112 154 135
1.27171 -0.957854 10.22 113 155 136
1.28416 -0.958791 10.23 109 151 132
1.29662 -0.959728 10.24 107 149 130
1.30783 -0.959728 10.24 107 149 130
1.31904 -0.959728 10.24 100 142 123
1.33025 -0.959728 10.24 99 141 122
1.34277 -0.960665 10.25 99 141 122
1.35531 -0.961602 10.26 101 143 124
1.36654 -0.961602 10.26 105 146 129
1.37911 -0.96254 10.27 108 149 132
1.39171 -0.963477 10.28 111 149 135
1.40296 -0.963477 10.28 111 149 135
1.41559 -0.964414 10.29 122 143 132
0.740584 -1.0328 11.15 63 131 143
0.752113 -1.03188 11.14 102 154 151
0.764307 -1.03188 11.14 93 145 142
0.775804 -1.03095 11.13 108 156 140
0.787279 -1.03002 11.12 98 146 130
0.798013 -1.02817 11.1 109 150 133
0.808703 -1.02632 11.08 111 152 135
0.818609 -1.02354 11.05 101 143 124
0.829953 -1.02261 11.04 108 150 131
0.838986 -1.01891 11 126 164 145
0.844837 -1.0115 10.92 135 173 154
0.850514 -1.00409 10.84 141 179 160
0 -0 0 141 179 160
0.859728 -0.987415 10.66 132 172 153
0.864857 -0.980005 10.58 121 161 142
0.871467 -0.974447 10.52 106 146 127
0.880464 -0.971668 10.49 97 137 118
0.889396 -0.96889 10.46 97 137 118
0.899123 -0.967037 10.44 100 140 121
0.908806 -0.965185 10.42 103 141 122
0.918446 -0.963332 10.4 101 139 120
0.928935 -0.962406 10.39 102 140 119
0.938498 -0.960553 10.37 111 149 128
0.948933 -0.959627 10.36 116 157 133
0.959346 -0.958701 10.35 117 158 134
0.970676 -0.958701 10.35 115 158 134
0.981056 -0.957774 10.34 120 163 139
0.992374 -0.957774 10.34 115 158 134
1.00272 -0.956848 10.33 119 162 138
1.01403 -0.956848 10.33 128 158 134
1.02534 -0.956848 10.33 156 186 162
1.03564 -0.955922 10.32 165 188 165
1.04592 -0.954995 10.31 147 170 147
1.05721 -0.954995 10.31 143 160 140
1.06849 -0.954995 10.31 126 143 123
1.07873 -0.954069 10.3 147 172 149
1.08895 -0.953143 10.29 152 177 154
1.10021 -0.953143 10.29 129 153 127
1.11039 -0.952217 10.28 133 157 131
1.12165 -0.952217 10.28 136 165 138
1.1318 -0.95129 10.27 145 174 147
1.14192 -0.950364 10.26 140 173 146
1.15316 -0.950364 10.26 129 162 135
1.16212 -0.948511 10.24 138 174 146
1.17332 -0.948511 10.24 138 174 146
1.18338 -0.947585 10.23 130 167 142
1.19341 -0.946659 10.22 126 163 138
1.20459 -0.946659 10.22 116 155 131
1.21578 -0.946659 10.22 125 164 140
1.22697 -0.946659 10.22 124 164 143
1.23694 -0.945733 10.21 107 147 126
1.24812 -0.945733 10.21 105 147 128
1.26053 -0.946659 10.22 104 146 127
1.27171 -0.946659 10.22 102 144 125
1.2829 -0.946659 10.22 97 139 120
1.29535 -0.947585 10.23 89 134 114
1.30655 -0.947585 10.23 89 134 114
1.31775 -0.947585 10.23 91 136 116
1.33025 -0.948511 10.24 98 143 123
1.34146 -0.948511 10.24 120 164 146
1.35398 -0.949438 10.25 118 162 144
1.36654 -0.950364 10.26 109 152 137
1.37777 -0.950364 10.26 107 150 135
1.39035 -0.95129 10.27 111 151 137
1.40296 -0.952217 10.28 109 149 135
1.41421 -0.952217 10.28 121 141 132
0.741248 -1.0215 11.16 59 122 133
0.752789 -1.02059 11.15 94 146 138
0.764307 -1.01967 11.14 97 149 141
0.776501 -1.01967 11.14 116 161 146
0.787987 -1.01876 11.13 104 149 134
0.798732 -1.01693 11.11 107 151 133
0.809433 -1.0151 11.09 106 150 132
0.820091 -1.01327 11.07 106 148 129
0.830704 -1.01144 11.05 104 146 127
0.839749 -1.00778 11.01 106 146 127
0.844837 -0.999537 10.92 109 149 130
0.848944 -0.990384 10.82 112 150 131
0 -0 0 125 163 144
0.858115 -0.973908 10.64 127 165 146
0.863222 -0.966585 10.56 144 182 163
0.870639 -0.962009 10.51 149 187 168
0.878786 -0.958347 10.47 138 176 157
0.889396 -0.957432 10.46 131 169 150
0.899123 -0.955602 10.44 116 154 135
0.908806 -0.953771 10.42 92 130 111
0.918446 -0.95194 10.4 97 135 116
0.928935 -0.951025 10.39 88 127 110
0.938498 -0.949194 10.37 89 128 111
0.948933 -0.948279 10.36 90 129 112
0.959346 -0.947363 10.35 93 132 115
0.970676 -0.947363 10.35 97 138 121
0.982005 -0.947363 10.35 107 148 131
0.992374 -0.946448 10.34 114 155 138
1.00369 -0.946448 10.34 118 159 142
1.01403 -0.945533 10.33 123 156 136
1.02534 -0.945533 10.33 117 150 130
1.03664 -0.945533 10.33 123 149 130
1.04694 -0.944618 10.32 120 146 127
1.05721 -0.943702 10.31 119 140 122
1.06849 -0.943702 10.31 120 141 123
1.07978 -0.943702 10.31 138 167 145
1.09 -0.942787 10.3 127 156 134
1.10021 -0.941872 10.29 116 145 123
1.11147 -0.941872 10.29 126 155 133
1.12165 -0.940956 10.28 124 153 131
1.1318 -0.940041 10.27 123 152 130
1.14304 -0.940041 10.27 134 166 142
1.15316 -0.939126 10.26 124 156 132
1.16325 -0.93821 10.25 126 158 134
1.17332 -0.937295 10.24 124 156 132
1.18338 -0.93638 10.23 119 151 127
1.19341 -0.935464 10.22 118 150 126
1.20459 -0.935464 10.22 115 150 125
1.21578 -0.935464 10.22 115 150 125
1.22577 -0.934549 10.21 110 148 127
1.23573 -0.933634 10.2 102 140 119
1.2469 -0.933634 10.2 99 139 120
1.25929 -0.934549 10.21 95 135 116
1.27171 -0.935464 10.22 97 137 118
1.2829 -0.935464 10.22 94 134 115
1.29409 -0.935464 10.22 91 133 114
1.30655 -0.93638 10.23 107 149 130
1.31775 -0.93638 10.23 111 152 135
1.33025 -0.937295 10.24 114 155 138
1.34146 -0.937295 10.24 112 153 136
1.35398 -0.93821 10.25 108 149 132
1.36654 -0.939126 10.26 112 152 138
1.37777 -0.939126 10.26 109 149 135
1.389 -0.939126 10.26 111 151 137
1.40159 -0.940041 10.27 113 153 139
1.41283 -0.940041 10.27 121 141 132
0.741912 -1.01019 11.17 73 130 140
0.753464 -1.00928 11.16 102 151 143
0.764307 -1.00747 11.14 94 143 135
0.776501 -1.00747 11.14 104 151 131
0.787987 -1.00657 11.13 110 157 137
0.798732 -1.00476 11.11 109 151 132
0.810163 -1.00385 11.1 108 150 131
0.820832 -1.00205 11.08 108 148 129
0.832208 -1.00114 11.07 107 147 128
0.838986 -0.994811 11 107 147 128
0 -0 0 104 144 125
0 -0 0 101 141 122
0 -0 0 108 148 129
0.858115 -0.962253 10.64 103 141 120
0.861587 -0.95321 10.54 104 142 121
0.86981 -0.949592 10.5 121 156 136
0.878786 -0.946879 10.47 143 178 158
0.889396 -0.945975 10.46 151 189 168
0.899123 -0.944166 10.44 152 190 169
0.908806 -0.942357 10.42 150 190 171
0.918446 -0.940548 10.4 151 191 172
0.928935 -0.939644 10.39 135 176 159
0.938498 -0.937835 10.37 115 156 139
0.948933 -0.936931 10.36 104 142 133
0.959346 -0.936027 10.35 100 138 129
0.970676 -0.936027 10.35 94 132 123
0.982005 -0.936027 10.35 93 131 122
0.992374 -0.935122 10.34 91 130 118
1.00369 -0.935122 10.34 88 127 115
1.01403 -0.934218 10.33 92 128 114
1.02534 -0.934218 10.33 92 128 114
1.03664 -0.934218 10.33 97 132 114
1.04694 -0.933313 10.32 100 135 117
1.05721 -0.932409 10.31 108 138 119
1.06849 -0.932409 10.31 98 128 109
1.07978 -0.932409 10.31 96 129 109
1.08895 -0.9306 10.29 99 132 112
1.10021 -0.9306 10.29 92 125 105
1.11147 -0.9306 10.29 103 136 116
1.12165 -0.929696 10.28 94 127 107
1.1329 -0.929696 10.28 98 131 111
1.14415 -0.929696 10.28 108 141 121
1.15316 -0.927887 10.26 95 128 108
1.16325 -0.926983 10.25 91 125 102
1.17332 -0.926078 10.24 92 126 103
1.18338 -0.925174 10.23 94 128 105
1.19341 -0.92427 10.22 98 132 109
1.20459 -0.92427 10.22 94 128 105
1.21459 -0.923365 10.21 93 127 104
1.22457 -0.922461 10.2 90 125 107
1.23573 -0.922461 10.2 93 128 110
1.2469 -0.922461 10.2 99 137 118
1.25929 -0.923365 10.21 105 143 124
1.27171 -0.92427 10.22 113 153 134
1.2829 -0.92427 10.22 117 157 138
1.29409 -0.92427 10.22 122 162 143
1.30655 -0.925174 10.23 115 155 136
1.31904 -0.926078 10.24 111 152 135
1.33025 -0.926078 10.24 108 149 132
1.34146 -0.926078 10.24 106 147 130
1.35398 -0.926983 10.25 101 142 125
1.3652 -0.926983 10.25 109 152 137
1.37777 -0.927887 10.26 107 150 135
1.389 -0.927887 10.26 111 150 138
1.40023 -0.927887 10.26 113 152 140
1.41146 -0.927887 10.26 118 137 131
0.741912 -0.99795 11.17 88 138 147
0.753464 -0.997056 11.16 115 163 152
0.764993 -0.996163 11.15 99 147 136
0.776501 -0.99527 11.14 99 144 124
0.787987 -0.994376 11.13 111 156 136
0.799451 -0.993483 11.12 112 154 133
0.810893 -0.992589 11.11 109 151 130
0.820832 -0.989909 11.08 108 148 127
0.83296 -0.989909 11.08 108 148 127
0.839749 -0.983655 11.01 108 148 127
0 -0 0 109 149 128
0 -0 0 109 149 128
0 -0 0 110 150 129
0 -0 0 107 147 126
0.859952 -0.939878 10.52 100 140 119
0.868154 -0.936304 10.48 104 143 119
0.876268 -0.93273 10.44 108 147 123
0.887695 -0.93273 10.44 111 150 126
0.8974 -0.930943 10.42 118 157 133
0.907934 -0.93005 10.41 123 163 142
0.917562 -0.928263 10.39 131 171 150
0.928041 -0.92737 10.38 139 178 161
