ply
format ascii 1.0
comment Created by Open3D
element vertex 1432
property double x
property double y
property double z
property uchar red
property uchar green
property uchar blue
end_header
0.567392 0.79553 6.76 196 140 93
0.575641 0.796707 6.77 196 140 93
0.583052 0.796707 6.77 196 140 93
0.591335 0.797884 6.78 196 140 93
0.599639 0.799061 6.79 196 140 93
0.607965 0.800238 6.8 196 140 93
0.615409 0.800238 6.8 196 140 93
0.624684 0.802591 6.82 196 140 93
0.632149 0.802591 6.82 196 140 93
0.640552 0.803768 6.83 196 140 93
0.648977 0.804945 6.84 196 140 93
0.657424 0.806122 6.85 196 140 93
0.665892 0.807299 6.86 196 140 93
0.674383 0.808475 6.87 196 140 93
0.681903 0.808475 6.87 196 140 93
0.690426 0.809652 6.88 196 140 93
-0 0 0 196 140 93
-0 0 0 196 140 93
-0 0 0 196 140 93
-0 0 0 196 140 93
-0 0 0 196 140 93
-0 0 0 196 140 93
-0 0 0 196 140 93
-0.275113 0.821939 6.92 196 140 93
-0.267151 0.820752 6.91 196 140 93
-0.259588 0.820752 6.91 196 140 93
-0.252024 0.820752 6.91 196 140 93
-0.24446 0.820752 6.91 196 140 93
-0.236897 0.820752 6.91 196 140 93
-0.229001 0.819564 6.9 196 140 93
-0.221448 0.819564 6.9 196 140 93
-0.213586 0.818376 6.89 196 140 93
-0.206044 0.818376 6.89 196 140 93
-0.198214 0.817188 6.88 196 140 93
-0.190406 0.816001 6.87 196 140 93
-0.18262 0.814813 6.86 196 140 93
-0.174856 0.813625 6.85 196 140 93
-0.167113 0.812437 6.84 196 140 93
-0.159393 0.811249 6.83 196 140 93
-0.151694 0.810062 6.82 196 140 93
-0.144018 0.808874 6.81 196 140 93
-0.136563 0.808874 6.81 196 140 93
-0.12892 0.807686 6.8 196 140 93
-0.121298 0.806498 6.79 196 140 93
-0.113698 0.805311 6.78 196 140 93
-0.106276 0.805311 6.78 196 140 93
-0.098709 0.804123 6.77 196 140 93
-0.0911637 0.802935 6.76 196 140 93
-0.0836403 0.801747 6.75 196 140 93
-0.0761387 0.800559 6.74 196 140 93
-0.0687611 0.800559 6.74 196 140 93
-0.0612014 0.798184 6.72 196 140 93
-0.0538457 0.798184 6.72 196 140 93
-0.0464208 0.796996 6.71 196 140 93
-0.0390178 0.795808 6.7 196 140 93
-0.0316367 0.794621 6.69 196 140 93
-0.0243138 0.794621 6.69 196 140 93
-0.0169655 0.793433 6.68 196 140 93
-0.00963913 0.792245 6.67 196 140 93
-0.00233815 0.792245 6.67 196 140 93
0.00495539 0.791057 6.66 196 140 93
0.0122454 0.791057 6.66 196 140 93
0.0195061 0.78987 6.65 196 140 93
0.0267852 0.78987 6.65 196 140 93
0.0340643 0.78987 6.65 196 140 93
0.0412812 0.788682 6.64 196 140 93
0.0485494 0.788682 6.64 196 140 93
0.0558175 0.788682 6.64 196 140 93
0.0630857 0.788682 6.64 196 140 93
0.0703538 0.788682 6.64 196 140 93
0.0775051 0.787494 6.63 196 140 93
0.0847623 0.787494 6.63 196 140 93
0.0920195 0.787494 6.63 196 140 93
0.0992767 0.787494 6.63 196 140 93
0.106373 0.786306 6.62 196 140 93
0.113619 0.786306 6.62 196 140 93
0.120866 0.786306 6.62 196 140 93
0.128112 0.786306 6.62 196 140 93
0.135358 0.786306 6.62 196 140 93
0.142604 0.786306 6.62 196 140 93
0.149624 0.785118 6.61 196 140 93
0.15686 0.785118 6.61 196 140 93
0.164095 0.785118 6.61 196 140 93
0.17133 0.785118 6.61 196 140 93
0.178566 0.785118 6.61 196 140 93
0.185801 0.785118 6.61 196 140 93
0.193036 0.785118 6.61 196 140 93
0.200272 0.785118 6.61 196 140 93
0.207507 0.785118 6.61 196 140 93
0.214742 0.785118 6.61 196 140 93
0.221977 0.785118 6.61 196 140 93
0.229213 0.785118 6.61 196 140 93
0.236448 0.785118 6.61 196 140 93
0.243315 0.783931 6.6 196 140 93
0.250539 0.783931 6.6 196 140 93
0.257763 0.783931 6.6 196 140 93
0.264988 0.783931 6.6 196 140 93
0.272212 0.783931 6.6 196 140 93
0.279436 0.783931 6.6 196 140 93
0.286661 0.783931 6.6 196 140 93
0.293885 0.783931 6.6 196 140 93
0.30111 0.783931 6.6 196 140 93
0.308801 0.785118 6.61 196 140 93
0.316036 0.785118 6.61 196 140 93
0.323272 0.785118 6.61 196 140 93
0.331007 0.786306 6.62 196 140 93
0.338253 0.786306 6.62 196 140 93
0.346021 0.787494 6.63 196 140 93
0.353279 0.787494 6.63 196 140 93
0.36108 0.788682 6.64 196 140 93
0.368348 0.788682 6.64 196 140 93
0.375616 0.788682 6.64 196 140 93
0.383461 0.78987 6.65 196 140 93
0.39074 0.78987 6.65 196 140 93
0.398019 0.78987 6.65 196 140 93
0.405298 0.78987 6.65 196 140 93
0.412577 0.78987 6.65 196 140 93
0.419856 0.78987 6.65 196 140 93
0.427778 0.791057 6.66 196 140 93
0.435068 0.791057 6.66 196 140 93
0.443022 0.792245 6.67 196 140 93
0.450323 0.792245 6.67 196 140 93
0.45831 0.793433 6.68 196 140 93
0.466319 0.794621 6.69 196 140 93
0.473642 0.794621 6.69 196 140 93
0.481684 0.795808 6.7 196 140 93
0.489747 0.796996 6.71 196 140 93
0.497092 0.796996 6.71 196 140 93
0.505189 0.798184 6.72 196 140 93
0.512544 0.798184 6.72 196 140 93
0.520674 0.799372 6.73 196 140 93
0.528825 0.800559 6.74 196 140 93
0.536203 0.800559 6.74 196 140 93
0.54358 0.800559 6.74 196 140 93
0.551775 0.801747 6.75 196 140 93
0.559992 0.802935 6.76 196 140 93
0.567392 0.802935 6.76 196 140 93
0.575641 0.804123 6.77 196 140 93
0.583913 0.805311 6.78 196 140 93
0.591335 0.805311 6.78 196 140 93
0.599639 0.806498 6.79 196 140 93
0.607965 0.807686 6.8 196 140 93
0.616314 0.808874 6.81 196 140 93
0.624684 0.810062 6.82 196 140 93
0.633076 0.811249 6.83 196 140 93
0.64149 0.812437 6.84 196 140 93
0.649926 0.813625 6.85 196 140 93
0.658384 0.814813 6.86 196 140 93
0.665892 0.814813 6.86 196 140 93
0.674383 0.816001 6.87 196 140 93
0.682896 0.817188 6.88 196 140 93
0.69143 0.818376 6.89 196 140 93
-0 0 0 196 140 93
-0 0 0 196 140 93
-0 0 0 196 140 93
-0 0 0 196 140 93
-0 0 0 196 140 93
-0 0 0 196 140 93
-0 0 0 196 140 93
-0.275113 0.829519 6.92 196 140 93
-0.267538 0.829519 6.92 196 140 93
-0.259963 0.829519 6.92 196 140 93
-0.252389 0.829519 6.92 196 140 93
-0.24446 0.828321 6.91 196 140 93
-0.236897 0.828321 6.91 196 140 93
-0.229333 0.828321 6.91 196 140 93
-0.221769 0.828321 6.91 196 140 93
-0.213896 0.827122 6.9 196 140 93
-0.206044 0.825923 6.89 196 140 93
-0.198214 0.824724 6.88 196 140 93
-0.190406 0.823526 6.87 196 140 93
-0.18262 0.822327 6.86 196 140 93
-0.174856 0.821128 6.85 196 140 93
-0.167113 0.819929 6.84 196 140 93
-0.159393 0.818731 6.83 196 140 93
-0.151694 0.817532 6.82 196 140 93
-0.144018 0.816333 6.81 196 140 93
-0.136363 0.815135 6.8 196 140 93
-0.12892 0.815135 6.8 196 140 93
-0.121298 0.813936 6.79 196 140 93
-0.113698 0.812737 6.78 196 140 93
-0.106119 0.811538 6.77 196 140 93
-0.0985632 0.81034 6.76 196 140 93
-0.0911637 0.81034 6.76 196 140 93
-0.0836403 0.809141 6.75 196 140 93
-0.0761387 0.807942 6.74 196 140 93
-0.0687611 0.807942 6.74 196 140 93
-0.0612925 0.806744 6.73 196 140 93
-0.0538457 0.805545 6.72 196 140 93
-0.0464208 0.804346 6.71 196 140 93
-0.0390178 0.803147 6.7 196 140 93
-0.031684 0.803147 6.7 196 140 93
-0.0243138 0.801949 6.69 196 140 93
-0.0169655 0.80075 6.68 196 140 93
-0.00965359 0.80075 6.68 196 140 93
-0.00233815 0.799551 6.67 196 140 93
0.00496283 0.799551 6.67 196 140 93
0.0122454 0.798352 6.66 196 140 93
0.0195355 0.798352 6.66 196 140 93
0.0267852 0.797154 6.65 196 140 93
0.0340643 0.797154 6.65 196 140 93
0.0413434 0.797154 6.65 196 140 93
0.0485494 0.795955 6.64 196 140 93
0.0558175 0.795955 6.64 196 140 93
0.0630857 0.795955 6.64 196 140 93
0.0703538 0.795955 6.64 196 140 93
0.077622 0.795955 6.64 196 140 93
0.0848901 0.795955 6.64 196 140 93
0.0920195 0.794756 6.63 196 140 93
0.0992767 0.794756 6.63 196 140 93
0.106534 0.794756 6.63 196 140 93
0.113791 0.794756 6.63 196 140 93
0.120866 0.793558 6.62 196 140 93
0.128112 0.793558 6.62 196 140 93
0.135358 0.793558 6.62 196 140 93
0.142604 0.793558 6.62 196 140 93
0.149851 0.793558 6.62 196 140 93
0.157097 0.793558 6.62 196 140 93
0.164343 0.793558 6.62 196 140 93
0.171589 0.793558 6.62 196 140 93
0.178836 0.793558 6.62 196 140 93
0.186082 0.793558 6.62 196 140 93
0.193328 0.793558 6.62 196 140 93
0.200574 0.793558 6.62 196 140 93
0.207821 0.793558 6.62 196 140 93
0.214742 0.792359 6.61 196 140 93
0.221977 0.792359 6.61 196 140 93
0.229213 0.792359 6.61 196 140 93
0.236448 0.792359 6.61 196 140 93
0.243683 0.792359 6.61 196 140 93
0.250539 0.79116 6.6 196 140 93
0.257763 0.79116 6.6 196 140 93
0.264988 0.79116 6.6 196 140 93
0.272212 0.79116 6.6 196 140 93
0.279013 0.789961 6.59 196 140 93
0.286227 0.789961 6.59 196 140 93
0.293885 0.79116 6.6 196 140 93
0.30111 0.79116 6.6 196 140 93
0.308801 0.792359 6.61 196 140 93
0.316036 0.792359 6.61 196 140 93
0.323272 0.792359 6.61 196 140 93
0.331007 0.793558 6.62 196 140 93
0.338253 0.793558 6.62 196 140 93
0.346021 0.794756 6.63 196 140 93
0.353279 0.794756 6.63 196 140 93
0.36108 0.795955 6.64 196 140 93
0.368348 0.795955 6.64 196 140 93
0.375616 0.795955 6.64 196 140 93
0.383461 0.797154 6.65 196 140 93
0.39074 0.797154 6.65 196 140 93
0.398019 0.797154 6.65 196 140 93
0.405298 0.797154 6.65 196 140 93
0.412577 0.797154 6.65 196 140 93
0.420488 0.798352 6.66 196 140 93
0.427778 0.798352 6.66 196 140 93
0.435721 0.799551 6.67 196 140 93
0.443022 0.799551 6.67 196 140 93
0.450998 0.80075 6.68 196 140 93
0.458996 0.801949 6.69 196 140 93
0.466319 0.801949 6.69 196 140 93
0.47435 0.803147 6.7 196 140 93
0.482403 0.804346 6.71 196 140 93
0.489747 0.804346 6.71 196 140 93
0.497833 0.805545 6.72 196 140 93
0.505189 0.805545 6.72 196 140 93
0.513307 0.806744 6.73 196 140 93
0.520674 0.806744 6.73 196 140 93
0.528825 0.807942 6.74 196 140 93
0.536203 0.807942 6.74 196 140 93
0.54358 0.807942 6.74 196 140 93
0.551775 0.809141 6.75 196 140 93
0.559992 0.81034 6.76 196 140 93
0.567392 0.81034 6.76 196 140 93
0.575641 0.811538 6.77 196 140 93
0.583913 0.812737 6.78 196 140 93
0.592207 0.813936 6.79 196 140 93
0.600522 0.815135 6.8 196 140 93
0.608859 0.816333 6.81 196 140 93
0.617219 0.817532 6.82 196 140 93
0.6256 0.818731 6.83 196 140 93
0.633076 0.818731 6.83 196 140 93
0.64149 0.819929 6.84 196 140 93
0.649926 0.821128 6.85 196 140 93
0.658384 0.822327 6.86 196 140 93
0.666863 0.823526 6.87 196 140 93
0.675365 0.824724 6.88 196 140 93
0.683888 0.825923 6.89 196 140 93
0.69143 0.825923 6.89 196 140 93
-0 0 0 196 140 93
-0 0 0 196 140 93
-0 0 0 196 140 93
-0 0 0 196 140 93
-0 0 0 196 140 93
-0 0 0 196 140 93
-0 0 0 196 140 93
-0.275113 0.837099 6.92 196 140 93
-0.267538 0.837099 6.92 196 140 93
-0.259963 0.837099 6.92 196 140 93
-0.252389 0.837099 6.92 196 140 93
-0.244814 0.837099 6.92 196 140 93
-0.237239 0.837099 6.92 196 140 93
-0.229333 0.83589 6.91 196 140 93
-0.221769 0.83589 6.91 196 140 93
-0.213896 0.83468 6.9 196 140 93
-0.206044 0.83347 6.89 196 140 93
-0.198214 0.832261 6.88 196 140 93
-0.190406 0.831051 6.87 196 140 93
-0.18262 0.829841 6.86 196 140 93
-0.174856 0.828632 6.85 196 140 93
-0.167113 0.827422 6.84 196 140 93
-0.159393 0.826212 6.83 196 140 93
-0.151694 0.825002 6.82 196 140 93
-0.144018 0.823793 6.81 196 140 93
-0.136363 0.822583 6.8 196 140 93
-0.12873 0.821373 6.79 196 140 93
-0.121298 0.821373 6.79 196 140 93
-0.113698 0.820164 6.78 196 140 93
-0.106119 0.818954 6.77 196 140 93
-0.0985632 0.817744 6.76 196 140 93
-0.0911637 0.817744 6.76 196 140 93
-0.0836403 0.816535 6.75 196 140 93
-0.0761387 0.815325 6.74 196 140 93
-0.0687611 0.815325 6.74 196 140 93
-0.0612925 0.814115 6.73 196 140 93
-0.0538457 0.812906 6.72 196 140 93
-0.0464208 0.811696 6.71 196 140 93
-0.039076 0.811696 6.71 196 140 93
-0.031684 0.810486 6.7 196 140 93
-0.0243501 0.810486 6.7 196 140 93
-0.0169909 0.809277 6.69 196 140 93
-0.00965359 0.808067 6.68 196 140 93
-0.00233815 0.806857 6.67 196 140 93
0.00496283 0.806857 6.67 196 140 93
0.0122638 0.806857 6.67 196 140 93
0.0195355 0.805648 6.66 196 140 93
0.0268255 0.805648 6.66 196 140 93
0.0340643 0.804438 6.65 196 140 93
0.0413434 0.804438 6.65 196 140 93
0.0486225 0.804438 6.65 196 140 93
0.0558175 0.803228 6.64 196 140 93
0.0630857 0.803228 6.64 196 140 93
0.0703538 0.803228 6.64 196 140 93
0.077622 0.803228 6.64 196 140 93
0.0848901 0.803228 6.64 196 140 93
0.0921583 0.803228 6.64 196 140 93
0.0994264 0.803228 6.64 196 140 93
0.106534 0.802019 6.63 196 140 93
0.113791 0.802019 6.63 196 140 93
0.121048 0.802019 6.63 196 140 93
0.128305 0.802019 6.63 196 140 93
0.135358 0.800809 6.62 196 140 93
0.142604 0.800809 6.62 196 140 93
0.149851 0.800809 6.62 196 140 93
0.157097 0.800809 6.62 196 140 93
0.164343 0.800809 6.62 196 140 93
0.171589 0.800809 6.62 196 140 93
0.178836 0.800809 6.62 196 140 93
0.186082 0.800809 6.62 196 140 93
0.193328 0.800809 6.62 196 140 93
0.200574 0.800809 6.62 196 140 93
0.207821 0.800809 6.62 196 140 93
0.215067 0.800809 6.62 196 140 93
0.222313 0.800809 6.62 196 140 93
0.229559 0.800809 6.62 196 140 93
0.236448 0.799599 6.61 196 140 93
0.243683 0.799599 6.61 196 140 93
0.250919 0.799599 6.61 196 140 93
0.258154 0.799599 6.61 196 140 93
0.264988 0.798389 6.6 196 140 93
0.272212 0.798389 6.6 196 140 93
0.279013 0.79718 6.59 196 140 93
0.286227 0.79718 6.59 196 140 93
0.29344 0.79718 6.59 196 140 93
0.30111 0.798389 6.6 196 140 93
0.308334 0.798389 6.6 196 140 93
0.315558 0.798389 6.6 196 140 93
0.323272 0.799599 6.61 196 140 93
0.330507 0.799599 6.61 196 140 93
0.338253 0.800809 6.62 196 140 93
0.3455 0.800809 6.62 196 140 93
0.353279 0.802019 6.63 196 140 93
0.360536 0.802019 6.63 196 140 93
0.368348 0.803228 6.64 196 140 93
0.375616 0.803228 6.64 196 140 93
0.383461 0.804438 6.65 196 140 93
0.39074 0.804438 6.65 196 140 93
0.398019 0.804438 6.65 196 140 93
0.405298 0.804438 6.65 196 140 93
0.413198 0.805648 6.66 196 140 93
0.420488 0.805648 6.66 196 140 93
0.42842 0.806857 6.67 196 140 93
0.435721 0.806857 6.67 196 140 93
0.443686 0.808067 6.68 196 140 93
0.450998 0.808067 6.68 196 140 93
0.458996 0.809277 6.69 196 140 93
0.467016 0.810486 6.7 196 140 93
0.475058 0.811696 6.71 196 140 93
0.483121 0.812906 6.72 196 140 93
0.490477 0.812906 6.72 196 140 93
0.497833 0.812906 6.72 196 140 93
0.50594 0.814115 6.73 196 140 93
0.513307 0.814115 6.73 196 140 93
0.520674 0.814115 6.73 196 140 93
0.528825 0.815325 6.74 196 140 93
0.536203 0.815325 6.74 196 140 93
0.54358 0.815325 6.74 196 140 93
0.551775 0.816535 6.75 196 140 93
0.559992 0.817744 6.76 196 140 93
0.567392 0.817744 6.76 196 140 93
0.575641 0.818954 6.77 196 140 93
0.583913 0.820164 6.78 196 140 93
0.592207 0.821373 6.79 196 140 93
0.600522 0.822583 6.8 196 140 93
0.608859 0.823793 6.81 196 140 93
0.617219 0.825002 6.82 196 140 93
0.6256 0.826212 6.83 196 140 93
0.634003 0.827422 6.84 196 140 93
0.64149 0.827422 6.84 196 140 93
0.649926 0.828632 6.85 196 140 93
0.658384 0.829841 6.86 196 140 93
0.666863 0.831051 6.87 196 140 93
0.675365 0.832261 6.88 196 140 93
0.683888 0.83347 6.89 196 140 93
0.692433 0.83468 6.9 196 140 93
-0 0 0 196 140 93
-0 0 0 196 140 93
-0 0 0 196 140 93
-0 0 0 196 140 93
-0 0 0 196 140 93
-0 0 0 196 140 93
-0.283096 0.8459 6.93 196 140 93
-0.27551 0.8459 6.93 196 140 93
-0.267925 0.8459 6.93 196 140 93
-0.260339 0.8459 6.93 196 140 93
-0.252753 0.8459 6.93 196 140 93
-0.244814 0.844679 6.92 196 140 93
-0.237239 0.844679 6.92 196 140 93
-0.229333 0.843459 6.91 196 140 93
-0.221769 0.843459 6.91 196 140 93
-0.213896 0.842238 6.9 196 140 93
-0.206044 0.841017 6.89 196 140 93
-0.198502 0.841017 6.89 196 140 93
-0.190406 0.838576 6.87 196 140 93
-0.18262 0.837355 6.86 196 140 93
-0.174856 0.836135 6.85 196 140 93
-0.167113 0.834914 6.84 196 140 93
-0.159393 0.833693 6.83 196 140 93
-0.151694 0.832473 6.82 196 140 93
-0.144018 0.831252 6.81 196 140 93
-0.136363 0.830032 6.8 196 140 93
-0.12873 0.828811 6.79 196 140 93
-0.121119 0.82759 6.78 196 140 93
-0.113698 0.82759 6.78 196 140 93
-0.106119 0.82637 6.77 196 140 93
-0.0985632 0.825149 6.76 196 140 93
-0.0911637 0.825149 6.76 196 140 93
-0.0836403 0.823928 6.75 196 140 93
-0.0761387 0.822708 6.74 196 140 93
-0.0687611 0.822708 6.74 196 140 93
-0.0612925 0.821487 6.73 196 140 93
-0.0538457 0.820266 6.72 196 140 93
-0.04649 0.820266 6.72 196 140 93
-0.039076 0.819046 6.71 196 140 93
-0.031684 0.817825 6.7 196 140 93
-0.0243501 0.817825 6.7 196 140 93
-0.0169909 0.816605 6.69 196 140 93
-0.00965359 0.815384 6.68 196 140 93
-0.00234166 0.815384 6.68 196 140 93
0.00496283 0.814163 6.67 196 140 93
0.0122638 0.814163 6.67 196 140 93
0.0195355 0.812943 6.66 196 140 93
0.0268255 0.812943 6.66 196 140 93
0.0340643 0.811722 6.65 196 140 93
0.0413434 0.811722 6.65 196 140 93
0.0486225 0.811722 6.65 196 140 93
0.0559016 0.811722 6.65 196 140 93
0.0631807 0.811722 6.65 196 140 93
0.0704598 0.811722 6.65 196 140 93
0.077622 0.810501 6.64 196 140 93
0.0848901 0.810501 6.64 196 140 93
0.0921583 0.810501 6.64 196 140 93
0.0994264 0.810501 6.64 196 140 93
0.106695 0.810501 6.64 196 140 93
0.113963 0.810501 6.64 196 140 93
0.121048 0.809281 6.63 196 140 93
0.128305 0.809281 6.63 196 140 93
0.135563 0.809281 6.63 196 140 93
0.14282 0.809281 6.63 196 140 93
0.149851 0.80806 6.62 196 140 93
0.157097 0.80806 6.62 196 140 93
0.164343 0.80806 6.62 196 140 93
0.171589 0.80806 6.62 196 140 93
0.178836 0.80806 6.62 196 140 93
0.186082 0.80806 6.62 196 140 93
0.193328 0.80806 6.62 196 140 93
0.200574 0.80806 6.62 196 140 93
0.207821 0.80806 6.62 196 140 93
0.215067 0.80806 6.62 196 140 93
0.222313 0.80806 6.62 196 140 93
0.229559 0.80806 6.62 196 140 93
0.236806 0.80806 6.62 196 140 93
0.243683 0.80684 6.61 196 140 93
0.250919 0.80684 6.61 196 140 93
0.258154 0.80684 6.61 196 140 93
0.264988 0.805619 6.6 196 140 93
0.272212 0.805619 6.6 196 140 93
0.279013 0.804398 6.59 196 140 93
0.286227 0.804398 6.59 196 140 93
0.29344 0.804398 6.59 196 140 93
0.300653 0.804398 6.59 196 140 93
0.308334 0.805619 6.6 196 140 93
0.315558 0.805619 6.6 196 140 93
0.323272 0.80684 6.61 196 140 93
0.330507 0.80684 6.61 196 140 93
0.338253 0.80806 6.62 196 140 93
0.3455 0.80806 6.62 196 140 93
0.353279 0.809281 6.63 196 140 93
0.36108 0.810501 6.64 196 140 93
0.368348 0.810501 6.64 196 140 93
0.375616 0.810501 6.64 196 140 93
0.383461 0.811722 6.65 196 140 93
0.39074 0.811722 6.65 196 140 93
0.398617 0.812943 6.66 196 140 93
0.405907 0.812943 6.66 196 140 93
0.413198 0.812943 6.66 196 140 93
0.421119 0.814163 6.67 196 140 93
0.42842 0.814163 6.67 196 140 93
0.436374 0.815384 6.68 196 140 93
0.443686 0.815384 6.68 196 140 93
0.451673 0.816605 6.69 196 140 93
0.459682 0.817825 6.7 196 140 93
0.467713 0.819046 6.71 196 140 93
0.475058 0.819046 6.71 196 140 93
0.483121 0.820266 6.72 196 140 93
0.490477 0.820266 6.72 196 140 93
0.498574 0.821487 6.73 196 140 93
0.50594 0.821487 6.73 196 140 93
0.513307 0.821487 6.73 196 140 93
0.520674 0.821487 6.73 196 140 93
0.528825 0.822708 6.74 196 140 93
0.536203 0.822708 6.74 196 140 93
0.54358 0.822708 6.74 196 140 93
0.551775 0.823928 6.75 196 140 93
0.559992 0.825149 6.76 196 140 93
0.567392 0.825149 6.76 196 140 93
0.575641 0.82637 6.77 196 140 93
0.583913 0.82759 6.78 196 140 93
0.592207 0.828811 6.79 196 140 93
0.600522 0.830032 6.8 196 140 93
0.608859 0.831252 6.81 196 140 93
0.617219 0.832473 6.82 196 140 93
0.6256 0.833693 6.83 196 140 93
0.634003 0.834914 6.84 196 140 93
0.642428 0.836135 6.85 196 140 93
0.649926 0.836135 6.85 196 140 93
0.658384 0.837355 6.86 196 140 93
0.666863 0.838576 6.87 196 140 93
0.675365 0.839797 6.88 196 140 93
0.683888 0.841017 6.89 196 140 93
0.692433 0.842238 6.9 196 140 93
-0 0 0 196 140 93
-0 0 0 196 140 93
-0 0 0 196 140 93
-0 0 0 196 140 93
-0 0 0 196 140 93
-0 0 0 196 140 93
-0.283096 0.853491 6.93 196 140 93
-0.27551 0.853491 6.93 196 140 93
-0.267925 0.853491 6.93 196 140 93
-0.260339 0.853491 6.93 196 140 93
-0.252753 0.853491 6.93 196 140 93
-0.244814 0.852259 6.92 196 140 93
-0.237239 0.852259 6.92 196 140 93
-0.229665 0.852259 6.92 196 140 93
-0.221769 0.851028 6.91 196 140 93
-0.213896 0.849796 6.9 196 140 93
-0.206044 0.848564 6.89 196 140 93
-0.198502 0.848564 6.89 196 140 93
-0.190406 0.846101 6.87 196 140 93
-0.18262 0.84487 6.86 196 140 93
-0.174856 0.843638 6.85 196 140 93
-0.167113 0.842406 6.84 196 140 93
-0.159159 0.839943 6.82 196 140 93
-0.151472 0.838712 6.81 196 140 93
-0.143806 0.83748 6.8 196 140 93
-0.136363 0.83748 6.8 196 140 93
-0.12873 0.836248 6.79 196 140 93
-0.121119 0.835017 6.78 196 140 93
-0.113698 0.835017 6.78 196 140 93
-0.106119 0.833785 6.77 196 140 93
-0.0985632 0.832554 6.76 196 140 93
-0.0911637 0.832554 6.76 196 140 93
-0.0836403 0.831322 6.75 196 140 93
-0.0761387 0.830091 6.74 196 140 93
-0.0687611 0.830091 6.74 196 140 93
-0.0612925 0.828859 6.73 196 140 93
-0.0539258 0.828859 6.73 196 140 93
-0.04649 0.827627 6.72 196 140 93
-0.039076 0.826396 6.71 196 140 93
-0.0317312 0.826396 6.71 196 140 93
-0.0243501 0.825164 6.7 196 140 93
-0.0169909 0.823933 6.69 196 140 93
-0.00965359 0.822701 6.68 196 140 93
-0.00234166 0.822701 6.68 196 140 93
0.00496283 0.821469 6.67 196 140 93
0.0122638 0.821469 6.67 196 140 93
0.0195648 0.821469 6.67 196 140 93
0.0268255 0.820238 6.66 196 140 93
0.0341155 0.820238 6.66 196 140 93
0.0413434 0.819006 6.65 196 140 93
0.0486225 0.819006 6.65 196 140 93
0.0559016 0.819006 6.65 196 140 93
0.0631807 0.819006 6.65 196 140 93
0.0704598 0.819006 6.65 196 140 93
0.0777389 0.819006 6.65 196 140 93
0.0848901 0.817775 6.64 196 140 93
0.0921583 0.817775 6.64 196 140 93
0.0994264 0.817775 6.64 196 140 93
0.106695 0.817775 6.64 196 140 93
0.113963 0.817775 6.64 196 140 93
0.121231 0.817775 6.64 196 140 93
0.128305 0.816543 6.63 196 140 93
0.135563 0.816543 6.63 196 140 93
0.14282 0.816543 6.63 196 140 93
0.150077 0.816543 6.63 196 140 93
0.157334 0.816543 6.63 196 140 93
0.164591 0.816543 6.63 196 140 93
0.171849 0.816543 6.63 196 140 93
0.179106 0.816543 6.63 196 140 93
0.186363 0.816543 6.63 196 140 93
0.19362 0.816543 6.63 196 140 93
0.200877 0.816543 6.63 196 140 93
0.208135 0.816543 6.63 196 140 93
0.215392 0.816543 6.63 196 140 93
0.222649 0.816543 6.63 196 140 93
0.229906 0.816543 6.63 196 140 93
0.236806 0.815311 6.62 196 140 93
0.244052 0.815311 6.62 196 140 93
0.250919 0.81408 6.61 196 140 93
0.258154 0.81408 6.61 196 140 93
0.264988 0.812848 6.6 196 140 93
0.272212 0.812848 6.6 196 140 93
0.279013 0.811617 6.59 196 140 93
0.286227 0.811617 6.59 196 140 93
0.29344 0.811617 6.59 196 140 93
0.300653 0.811617 6.59 196 140 93
0.308334 0.812848 6.6 196 140 93
0.315558 0.812848 6.6 196 140 93
0.323272 0.81408 6.61 196 140 93
0.330507 0.81408 6.61 196 140 93
0.338253 0.815311 6.62 196 140 93
0.346021 0.816543 6.63 196 140 93
0.353279 0.816543 6.63 196 140 93
0.36108 0.817775 6.64 196 140 93
0.368348 0.817775 6.64 196 140 93
0.376182 0.819006 6.65 196 140 93
0.383461 0.819006 6.65 196 140 93
0.391327 0.820238 6.66 196 140 93
0.398617 0.820238 6.66 196 140 93
0.406517 0.821469 6.67 196 140 93
0.413818 0.821469 6.67 196 140 93
0.421119 0.821469 6.67 196 140 93
0.429062 0.822701 6.68 196 140 93
0.437027 0.823933 6.69 196 140 93
0.44435 0.823933 6.69 196 140 93
0.452348 0.825164 6.7 196 140 93
0.459682 0.825164 6.7 196 140 93
0.467713 0.826396 6.71 196 140 93
0.475766 0.827627 6.72 196 140 93
0.483121 0.827627 6.72 196 140 93
0.490477 0.827627 6.72 196 140 93
0.498574 0.828859 6.73 196 140 93
0.50594 0.828859 6.73 196 140 93
0.513307 0.828859 6.73 196 140 93
0.520674 0.828859 6.73 196 140 93
0.528825 0.830091 6.74 196 140 93
0.536203 0.830091 6.74 196 140 93
0.54358 0.830091 6.74 196 140 93
0.551775 0.831322 6.75 196 140 93
0.559992 0.832554 6.76 196 140 93
0.568231 0.833785 6.77 196 140 93
0.576492 0.835017 6.78 196 140 93
0.584774 0.836248 6.79 196 140 93
0.593079 0.83748 6.8 196 140 93
0.601405 0.838712 6.81 196 140 93
0.609754 0.839943 6.82 196 140 93
0.618124 0.841175 6.83 196 140 93
0.6256 0.841175 6.83 196 140 93
0.634003 0.842406 6.84 196 140 93
0.642428 0.843638 6.85 196 140 93
0.650875 0.84487 6.86 196 140 93
0.658384 0.84487 6.86 196 140 93
0.666863 0.846101 6.87 196 140 93
0.675365 0.847333 6.88 196 140 93
0.683888 0.848564 6.89 196 140 93
0.693437 0.851028 6.91 196 140 93
-0 0 0 196 140 93
-0 0 0 196 140 93
-0 0 0 196 140 93
-0 0 0 196 140 93
-0 0 0 196 140 93
-0 0 0 196 140 93
-0 0 0 196 140 93
-0.283504 0.862324 6.94 196 140 93
-0.27551 0.861082 6.93 196 140 93
-0.267925 0.861082 6.93 196 140 93
-0.260339 0.861082 6.93 196 140 93
-0.252753 0.861082 6.93 196 140 93
-0.245168 0.861082 6.93 196 140 93
-0.237239 0.859839 6.92 196 140 93
-0.229665 0.859839 6.92 196 140 93
-0.221769 0.858597 6.91 196 140 93
-0.213896 0.857354 6.9 196 140 93
-0.206044 0.856111 6.89 196 140 93
-0.198502 0.856111 6.89 196 140 93
-0.190406 0.853626 6.87 196 140 93
-0.18262 0.852384 6.86 196 140 93
-0.174856 0.851141 6.85 196 140 93
-0.167113 0.849899 6.84 196 140 93
-0.159159 0.847414 6.82 196 140 93
-0.151472 0.846171 6.81 196 140 93
-0.143806 0.844929 6.8 196 140 93
-0.136363 0.844929 6.8 196 140 93
-0.12873 0.843686 6.79 196 140 93
-0.121119 0.842443 6.78 196 140 93
-0.11353 0.841201 6.77 196 140 93
-0.106119 0.841201 6.77 196 140 93
-0.0985632 0.839958 6.76 196 140 93
-0.0911637 0.839958 6.76 196 140 93
-0.0836403 0.838716 6.75 196 140 93
-0.0761387 0.837473 6.74 196 140 93
-0.0687611 0.837473 6.74 196 140 93
-0.0612925 0.836231 6.73 196 140 93
-0.0539258 0.836231 6.73 196 140 93
-0.04649 0.834988 6.72 196 140 93
-0.0391342 0.834988 6.72 196 140 93
-0.0317312 0.833746 6.71 196 140 93
-0.0243501 0.832503 6.7 196 140 93
-0.0169909 0.831261 6.69 196 140 93
-0.00966804 0.831261 6.69 196 140 93
-0.00234166 0.830018 6.68 196 140 93
0.00497027 0.830018 6.68 196 140 93
0.0122638 0.828775 6.67 196 140 93
0.0195648 0.828775 6.67 196 140 93
0.0268255 0.827533 6.66 196 140 93
0.0341155 0.827533 6.66 196 140 93
0.0413434 0.82629 6.65 196 140 93
0.0486225 0.82629 6.65 196 140 93
0.0559016 0.82629 6.65 196 140 93
0.0631807 0.82629 6.65 196 140 93
0.0704598 0.82629 6.65 196 140 93
0.0777389 0.82629 6.65 196 140 93
0.085018 0.82629 6.65 196 140 93
0.0922971 0.82629 6.65 196 140 93
0.0994264 0.825048 6.64 196 140 93
0.106695 0.825048 6.64 196 140 93
0.113963 0.825048 6.64 196 140 93
0.121231 0.825048 6.64 196 140 93
0.128499 0.825048 6.64 196 140 93
0.135563 0.823805 6.63 196 140 93
0.14282 0.823805 6.63 196 140 93
0.150077 0.823805 6.63 196 140 93
0.157334 0.823805 6.63 196 140 93
0.164591 0.823805 6.63 196 140 93
0.171849 0.823805 6.63 196 140 93
0.179106 0.823805 6.63 196 140 93
0.186363 0.823805 6.63 196 140 93
0.19362 0.823805 6.63 196 140 93
0.200877 0.823805 6.63 196 140 93
0.208449 0.825048 6.64 196 140 93
0.215717 0.825048 6.64 196 140 93
0.222649 0.823805 6.63 196 140 93
0.229906 0.823805 6.63 196 140 93
0.237163 0.823805 6.63 196 140 93
0.244052 0.822563 6.62 196 140 93
0.251298 0.822563 6.62 196 140 93
0.258154 0.82132 6.61 196 140 93
0.265389 0.82132 6.61 196 140 93
0.272212 0.820078 6.6 196 140 93
0.279436 0.820078 6.6 196 140 93
0.286661 0.820078 6.6 196 140 93
0.293885 0.820078 6.6 196 140 93
0.30111 0.820078 6.6 196 140 93
0.308334 0.820078 6.6 196 140 93
0.316036 0.82132 6.61 196 140 93
0.323272 0.82132 6.61 196 140 93
0.331007 0.822563 6.62 196 140 93
0.338253 0.822563 6.62 196 140 93
0.346021 0.823805 6.63 196 140 93
0.353812 0.825048 6.64 196 140 93
0.36108 0.825048 6.64 196 140 93
0.368903 0.82629 6.65 196 140 93
0.376182 0.82629 6.65 196 140 93
0.384037 0.827533 6.66 196 140 93
0.391327 0.827533 6.66 196 140 93
0.399216 0.828775 6.67 196 140 93
0.406517 0.828775 6.67 196 140 93
0.414438 0.830018 6.68 196 140 93
0.42175 0.830018 6.68 196 140 93
0.429705 0.831261 6.69 196 140 93
0.437027 0.831261 6.69 196 140 93
0.445014 0.832503 6.7 196 140 93
0.452348 0.832503 6.7 196 140 93
0.459682 0.832503 6.7 196 140 93
0.467713 0.833746 6.71 196 140 93
0.475766 0.834988 6.72 196 140 93
0.483121 0.834988 6.72 196 140 93
0.490477 0.834988 6.72 196 140 93
0.498574 0.836231 6.73 196 140 93
0.50594 0.836231 6.73 196 140 93
0.513307 0.836231 6.73 196 140 93
0.521447 0.837473 6.74 196 140 93
0.528825 0.837473 6.74 196 140 93
0.536203 0.837473 6.74 196 140 93
0.544387 0.838716 6.75 196 140 93
0.551775 0.838716 6.75 196 140 93
0.559992 0.839958 6.76 196 140 93
0.568231 0.841201 6.77 196 140 93
0.576492 0.842443 6.78 196 140 93
0.584774 0.843686 6.79 196 140 93
0.593079 0.844929 6.8 196 140 93
0.601405 0.846171 6.81 196 140 93
0.609754 0.847414 6.82 196 140 93
0.618124 0.848656 6.83 196 140 93
0.626516 0.849899 6.84 196 140 93
0.634003 0.849899 6.84 196 140 93
0.642428 0.851141 6.85 196 140 93
0.650875 0.852384 6.86 196 140 93
0.658384 0.852384 6.86 196 140 93
0.666863 0.853626 6.87 196 140 93
0.675365 0.854869 6.88 196 140 93
0.683888 0.856111 6.89 196 140 93
0.693437 0.858597 6.91 196 140 93
-0 0 0 196 140 93
-0 0 0 196 140 93
-0 0 0 196 140 93
-0 0 0 196 140 93
-0 0 0 196 140 93
-0 0 0 196 140 93
-0 0 0 196 140 93
-0.283504 0.869926 6.94 196 140 93
-0.275908 0.869926 6.94 196 140 93
-0.268311 0.869926 6.94 196 140 93
-0.260715 0.869926 6.94 196 140 93
-0.253118 0.869926 6.94 196 140 93
-0.245168 0.868672 6.93 196 140 93
-0.237239 0.867419 6.92 196 140 93
-0.229665 0.867419 6.92 196 140 93
-0.221769 0.866165 6.91 196 140 93
-0.213896 0.864912 6.9 196 140 93
-0.206044 0.863659 6.89 196 140 93
-0.198214 0.862405 6.88 196 140 93
-0.190406 0.861152 6.87 196 140 93
-0.18262 0.859898 6.86 196 140 93
-0.1746 0.857391 6.84 196 140 93
-0.166869 0.856138 6.83 196 140 93
-0.159159 0.854884 6.82 196 140 93
-0.151472 0.853631 6.81 196 140 93
-0.143806 0.852377 6.8 196 140 93
-0.136162 0.851124 6.79 196 140 93
-0.12873 0.851124 6.79 196 140 93
-0.121119 0.84987 6.78 196 140 93
-0.11353 0.848617 6.77 196 140 93
-0.106119 0.848617 6.77 196 140 93
-0.0985632 0.847363 6.76 196 140 93
-0.0911637 0.847363 6.76 196 140 93
-0.0836403 0.84611 6.75 196 140 93
-0.0761387 0.844856 6.74 196 140 93
-0.0687611 0.844856 6.74 196 140 93
-0.0612925 0.843603 6.73 196 140 93
-0.0539258 0.843603 6.73 196 140 93
-0.04649 0.842349 6.72 196 140 93
-0.0391342 0.842349 6.72 196 140 93
-0.0317312 0.841096 6.71 196 140 93
-0.0243501 0.839842 6.7 196 140 93
-0.0170163 0.839842 6.7 196 140 93
-0.00966804 0.838589 6.69 196 140 93
-0.00234166 0.837335 6.68 196 140 93
0.00497027 0.837335 6.68 196 140 93
0.0122638 0.836082 6.67 196 140 93
0.0195648 0.836082 6.67 196 140 93
0.0268255 0.834828 6.66 196 140 93
0.0341155 0.834828 6.66 196 140 93
0.0414056 0.834828 6.66 196 140 93
0.0486225 0.833575 6.65 196 140 93
0.0559016 0.833575 6.65 196 140 93
0.0631807 0.833575 6.65 196 140 93
0.0704598 0.833575 6.65 196 140 93
0.0777389 0.833575 6.65 196 140 93
0.085018 0.833575 6.65 196 140 93
0.0922971 0.833575 6.65 196 140 93
0.0994264 0.832321 6.64 196 140 93
0.106695 0.832321 6.64 196 140 93
0.113963 0.832321 6.64 196 140 93
0.121231 0.832321 6.64 196 140 93
0.128499 0.832321 6.64 196 140 93
0.135563 0.831068 6.63 196 140 93
0.14282 0.831068 6.63 196 140 93
0.150077 0.831068 6.63 196 140 93
0.157334 0.831068 6.63 196 140 93
0.164591 0.831068 6.63 196 140 93
0.171849 0.831068 6.63 196 140 93
0.179376 0.832321 6.64 196 140 93
0.186644 0.832321 6.64 196 140 93
0.193912 0.832321 6.64 196 140 93
0.20118 0.832321 6.64 196 140 93
0.208449 0.832321 6.64 196 140 93
0.215717 0.832321 6.64 196 140 93
0.222985 0.832321 6.64 196 140 93
0.230253 0.832321 6.64 196 140 93
0.237163 0.831068 6.63 196 140 93
0.244421 0.831068 6.63 196 140 93
0.251298 0.829814 6.62 196 140 93
0.258545 0.829814 6.62 196 140 93
0.265389 0.828561 6.61 196 140 93
0.272625 0.828561 6.61 196 140 93
0.279436 0.827307 6.6 196 140 93
0.286661 0.827307 6.6 196 140 93
0.293885 0.827307 6.6 196 140 93
0.301566 0.828561 6.61 196 140 93
0.308801 0.828561 6.61 196 140 93
0.316036 0.828561 6.61 196 140 93
0.323761 0.829814 6.62 196 140 93
0.331007 0.829814 6.62 196 140 93
0.338764 0.831068 6.63 196 140 93
0.346543 0.832321 6.64 196 140 93
0.353812 0.832321 6.64 196 140 93
0.361623 0.833575 6.65 196 140 93
0.368903 0.833575 6.65 196 140 93
0.376747 0.834828 6.66 196 140 93
0.384037 0.834828 6.66 196 140 93
0.391915 0.836082 6.67 196 140 93
0.399216 0.836082 6.67 196 140 93
0.407126 0.837335 6.68 196 140 93
0.414438 0.837335 6.68 196 140 93
0.422382 0.838589 6.69 196 140 93
0.429705 0.838589 6.69 196 140 93
0.437681 0.839842 6.7 196 140 93
0.445014 0.839842 6.7 196 140 93
0.452348 0.839842 6.7 196 140 93
0.460368 0.841096 6.71 196 140 93
0.467713 0.841096 6.71 196 140 93
0.475766 0.842349 6.72 196 140 93
0.483121 0.842349 6.72 196 140 93
0.490477 0.842349 6.72 196 140 93
0.498574 0.843603 6.73 196 140 93
0.50594 0.843603 6.73 196 140 93
0.513307 0.843603 6.73 196 140 93
0.521447 0.844856 6.74 196 140 93
0.528825 0.844856 6.74 196 140 93
0.536203 0.844856 6.74 196 140 93
0.544387 0.84611 6.75 196 140 93
0.551775 0.84611 6.75 196 140 93
0.559992 0.847363 6.76 196 140 93
0.568231 0.848617 6.77 196 140 93
0.576492 0.84987 6.78 196 140 93
0.584774 0.851124 6.79 196 140 93
0.593079 0.852377 6.8 196 140 93
0.601405 0.853631 6.81 196 140 93
0.609754 0.854884 6.82 196 140 93
0.618124 0.856138 6.83 196 140 93
0.626516 0.857391 6.84 196 140 93
0.634003 0.857391 6.84 196 140 93
0.642428 0.858644 6.85 196 140 93
0.650875 0.859898 6.86 196 140 93
0.658384 0.859898 6.86 196 140 93
0.666863 0.861152 6.87 196 140 93
0.675365 0.862405 6.88 196 140 93
0.683888 0.863659 6.89 196 140 93
0.693437 0.866165 6.91 196 140 93
-0 0 0 196 140 93
-0 0 0 196 140 93
-0 0 0 196 140 93
-0 0 0 196 140 93
-0 0 0 196 140 93
-0 0 0 196 140 93
-0 0 0 196 140 93
-0 0 0 196 140 93
-0.275908 0.877528 6.94 196 140 93
-0.268311 0.877528 6.94 196 140 93
-0.260715 0.877528 6.94 196 140 93
-0.253118 0.877528 6.94 196 140 93
-0.245168 0.876263 6.93 196 140 93
-0.237582 0.876263 6.93 196 140 93
-0.229665 0.874999 6.92 196 140 93
-0.221769 0.873734 6.91 196 140 93
-0.213896 0.87247 6.9 196 140 93
-0.206044 0.871206 6.89 196 140 93
-0.198214 0.869941 6.88 196 140 93
-0.190406 0.868677 6.87 196 140 93
-0.18262 0.867412 6.86 196 140 93
-0.1746 0.864883 6.84 196 140 93
-0.166869 0.863619 6.83 196 140 93
-0.159159 0.862354 6.82 196 140 93
-0.151472 0.86109 6.81 196 140 93
-0.143806 0.859825 6.8 196 140 93
-0.136162 0.858561 6.79 196 140 93
-0.12873 0.858561 6.79 196 140 93
-0.121119 0.857297 6.78 196 140 93
-0.11353 0.856032 6.77 196 140 93
-0.106119 0.856032 6.77 196 140 93
-0.0985632 0.854768 6.76 196 140 93
-0.0911637 0.854768 6.76 196 140 93
-0.0836403 0.853503 6.75 196 140 93
-0.0762517 0.853503 6.75 196 140 93
-0.0687611 0.852239 6.74 196 140 93
-0.0612925 0.850974 6.73 196 140 93
-0.0539258 0.850974 6.73 196 140 93
-0.04649 0.84971 6.72 196 140 93
-0.0391342 0.84971 6.72 196 140 93
-0.0317312 0.848445 6.71 196 140 93
-0.0243501 0.847181 6.7 196 140 93
-0.0170163 0.847181 6.7 196 140 93
-0.00966804 0.845917 6.69 196 140 93
-0.00234166 0.844652 6.68 196 140 93
0.00497027 0.844652 6.68 196 140 93
0.0122638 0.843388 6.67 196 140 93
0.0195648 0.843388 6.67 196 140 93
0.0268658 0.843388 6.67 196 140 93
0.0341155 0.842123 6.66 196 140 93
0.0414056 0.842123 6.66 196 140 93
0.0486956 0.842123 6.66 196 140 93
0.0559857 0.842123 6.66 196 140 93
0.0631807 0.840859 6.65 196 140 93
0.0704598 0.840859 6.65 196 140 93
0.0777389 0.840859 6.65 196 140 93
0.085018 0.840859 6.65 196 140 93
0.0922971 0.840859 6.65 196 140 93
0.0995761 0.840859 6.65 196 140 93
0.106695 0.839594 6.64 196 140 93
0.113963 0.839594 6.64 196 140 93
0.121231 0.839594 6.64 196 140 93
0.128499 0.839594 6.64 196 140 93
0.135767 0.839594 6.64 196 140 93
0.143035 0.839594 6.64 196 140 93
0.150077 0.83833 6.63 196 140 93
0.157572 0.839594 6.64 196 140 93
0.16484 0.839594 6.64 196 140 93
0.172108 0.839594 6.64 196 140 93
0.179376 0.839594 6.64 196 140 93
0.186644 0.839594 6.64 196 140 93
0.193912 0.839594 6.64 196 140 93
0.20118 0.839594 6.64 196 140 93
0.208449 0.839594 6.64 196 140 93
0.215717 0.839594 6.64 196 140 93
0.222985 0.839594 6.64 196 140 93
0.230253 0.839594 6.64 196 140 93
0.237521 0.839594 6.64 196 140 93
0.244421 0.83833 6.63 196 140 93
0.251678 0.83833 6.63 196 140 93
0.258545 0.837065 6.62 196 140 93
0.265791 0.837065 6.62 196 140 93
0.272625 0.835801 6.61 196 140 93
0.27986 0.835801 6.61 196 140 93
0.287095 0.835801 6.61 196 140 93
0.294331 0.835801 6.61 196 140 93
0.301566 0.835801 6.61 196 140 93
0.309268 0.837065 6.62 196 140 93
0.316515 0.837065 6.62 196 140 93
0.323761 0.837065 6.62 196 140 93
0.331507 0.83833 6.63 196 140 93
0.339275 0.839594 6.64 196 140 93
0.346543 0.839594 6.64 196 140 93
0.354344 0.840859 6.65 196 140 93
0.361623 0.840859 6.65 196 140 93
0.369457 0.842123 6.66 196 140 93
0.376747 0.842123 6.66 196 140 93
0.384614 0.843388 6.67 196 140 93
0.391915 0.843388 6.67 196 140 93
0.399814 0.844652 6.68 196 140 93
0.407126 0.844652 6.68 196 140 93
0.415059 0.845917 6.69 196 140 93
0.422382 0.845917 6.69 196 140 93
0.430347 0.847181 6.7 196 140 93
0.437681 0.847181 6.7 196 140 93
0.445014 0.847181 6.7 196 140 93
0.453023 0.848445 6.71 196 140 93
0.460368 0.848445 6.71 196 140 93
0.46841 0.84971 6.72 196 140 93
0.475766 0.84971 6.72 196 140 93
0.483121 0.84971 6.72 196 140 93
0.491207 0.850974 6.73 196 140 93
0.498574 0.850974 6.73 196 140 93
0.50594 0.850974 6.73 196 140 93
0.51407 0.852239 6.74 196 140 93
0.521447 0.852239 6.74 196 140 93
0.528825 0.852239 6.74 196 140 93
0.536998 0.853503 6.75 196 140 93
0.544387 0.853503 6.75 196 140 93
0.552593 0.854768 6.76 196 140 93
0.559992 0.854768 6.76 196 140 93
0.568231 0.856032 6.77 196 140 93
0.576492 0.857297 6.78 196 140 93
0.584774 0.858561 6.79 196 140 93
0.593079 0.859825 6.8 196 140 93
0.601405 0.86109 6.81 196 140 93
0.609754 0.862354 6.82 196 140 93
0.618124 0.863619 6.83 196 140 93
0.626516 0.864883 6.84 196 140 93
0.63493 0.866148 6.85 196 140 93
0.642428 0.866148 6.85 196 140 93
0.650875 0.867412 6.86 196 140 93
0.658384 0.867412 6.86 196 140 93
0.667834 0.869941 6.88 196 140 93
0.675365 0.869941 6.88 196 140 93
0.684881 0.87247 6.9 196 140 93
0.693437 0.873734 6.91 196 140 93
-0 0 0 196 140 93
-0 0 0 196 140 93
-0 0 0 196 140 93
-0 0 0 196 140 93
-0 0 0 196 140 93
-0 0 0 196 140 93
-0 0 0 196 140 93
-0 0 0 196 140 93
-0.276305 0.886405 6.95 196 140 93
-0.268311 0.88513 6.94 196 140 93
-0.260715 0.88513 6.94 196 140 93
-0.253118 0.88513 6.94 196 140 93
-0.245522 0.88513 6.94 196 140 93
-0.237582 0.883854 6.93 196 140 93
-0.229665 0.882579 6.92 196 140 93
-0.221769 0.881303 6.91 196 140 93
-0.213896 0.880028 6.9 196 140 93
-0.206044 0.878753 6.89 196 140 93
-0.198214 0.877477 6.88 196 140 93
-0.190129 0.874926 6.86 196 140 93
-0.182354 0.873651 6.85 196 140 93
-0.1746 0.872376 6.84 196 140 93
-0.166869 0.8711 6.83 196 140 93
-0.159159 0.869825 6.82 196 140 93
-0.151472 0.868549 6.81 196 140 93
-0.143806 0.867274 6.8 196 140 93
-0.136162 0.865999 6.79 196 140 93
-0.12873 0.865999 6.79 196 140 93
-0.121119 0.864723 6.78 196 140 93
-0.11353 0.863448 6.77 196 140 93
-0.106119 0.863448 6.77 196 140 93
-0.0985632 0.862172 6.76 196 140 93
-0.0911637 0.862172 6.76 196 140 93
-0.0836403 0.860897 6.75 196 140 93
-0.0762517 0.860897 6.75 196 140 93
-0.0687611 0.859622 6.74 196 140 93
-0.0612925 0.858346 6.73 196 140 93
-0.0539258 0.858346 6.73 196 140 93
-0.04649 0.857071 6.72 196 140 93
-0.0391342 0.857071 6.72 196 140 93
-0.0317312 0.855795 6.71 196 140 93
-0.0243501 0.85452 6.7 196 140 93
-0.0170163 0.85452 6.7 196 140 93
-0.00966804 0.853245 6.69 196 140 93
-0.00234516 0.853245 6.69 196 140 93
0.00497027 0.851969 6.68 196 140 93
0.0122822 0.851969 6.68 196 140 93
0.0195648 0.850694 6.67 196 140 93
0.0268658 0.850694 6.67 196 140 93
0.0341155 0.849418 6.66 196 140 93
0.0414056 0.849418 6.66 196 140 93
0.0486956 0.849418 6.66 196 140 93
0.0559857 0.849418 6.66 196 140 93
0.0632757 0.849418 6.66 196 140 93
0.0704598 0.848143 6.65 196 140 93
0.0777389 0.848143 6.65 196 140 93
0.085018 0.848143 6.65 196 140 93
0.0922971 0.848143 6.65 196 140 93
0.0995761 0.848143 6.65 196 140 93
0.106695 0.846868 6.64 196 140 93
0.113963 0.846868 6.64 196 140 93
0.121231 0.846868 6.64 196 140 93
0.128499 0.846868 6.64 196 140 93
0.135767 0.846868 6.64 196 140 93
0.143035 0.846868 6.64 196 140 93
0.150303 0.846868 6.64 196 140 93
0.157572 0.846868 6.64 196 140 93
0.16484 0.846868 6.64 196 140 93
0.172108 0.846868 6.64 196 140 93
0.179376 0.846868 6.64 196 140 93
0.186644 0.846868 6.64 196 140 93
0.193912 0.846868 6.64 196 140 93
0.201483 0.848143 6.65 196 140 93
0.208763 0.848143 6.65 196 140 93
0.216042 0.848143 6.65 196 140 93
0.223321 0.848143 6.65 196 140 93
0.2306 0.848143 6.65 196 140 93
0.237521 0.846868 6.64 196 140 93
0.244789 0.846868 6.64 196 140 93
0.252057 0.846868 6.64 196 140 93
0.258935 0.845592 6.63 196 140 93
0.265791 0.844317 6.62 196 140 93
0.273037 0.844317 6.62 196 140 93
0.280283 0.844317 6.62 196 140 93
0.287095 0.843041 6.61 196 140 93
0.294331 0.843041 6.61 196 140 93
0.302022 0.844317 6.62 196 140 93
0.309268 0.844317 6.62 196 140 93
0.316993 0.845592 6.63 196 140 93
0.32425 0.845592 6.63 196 140 93
0.332007 0.846868 6.64 196 140 93
0.339275 0.846868 6.64 196 140 93
0.347065 0.848143 6.65 196 140 93
0.354344 0.848143 6.65 196 140 93
0.362167 0.849418 6.66 196 140 93
0.369457 0.849418 6.66 196 140 93
0.377313 0.850694 6.67 196 140 93
0.384614 0.850694 6.67 196 140 93
0.392503 0.851969 6.68 196 140 93
0.399814 0.851969 6.68 196 140 93
0.407736 0.853245 6.69 196 140 93
0.415059 0.853245 6.69 196 140 93
0.423013 0.85452 6.7 196 140 93
0.430347 0.85452 6.7 196 140 93
0.438334 0.855795 6.71 196 140 93
0.445679 0.855795 6.71 196 140 93
0.453023 0.855795 6.71 196 140 93
0.460368 0.855795 6.71 196 140 93
0.46841 0.857071 6.72 196 140 93
0.475766 0.857071 6.72 196 140 93
0.483121 0.857071 6.72 196 140 93
0.491207 0.858346 6.73 196 140 93
0.498574 0.858346 6.73 196 140 93
0.50594 0.858346 6.73 196 140 93
0.51407 0.859622 6.74 196 140 93
0.521447 0.859622 6.74 196 140 93
0.528825 0.859622 6.74 196 140 93
0.536998 0.860897 6.75 196 140 93
0.545193 0.862172 6.76 196 140 93
0.552593 0.862172 6.76 196 140 93
0.560821 0.863448 6.77 196 140 93
0.56907 0.864723 6.78 196 140 93
0.577342 0.865999 6.79 196 140 93
0.585636 0.867274 6.8 196 140 93
0.593951 0.868549 6.81 196 140 93
0.602288 0.869825 6.82 196 140 93
0.609754 0.869825 6.82 196 140 93
0.618124 0.8711 6.83 196 140 93
0.626516 0.872376 6.84 196 140 93
0.63493 0.873651 6.85 196 140 93
0.643366 0.874926 6.86 196 140 93
0.650875 0.874926 6.86 196 140 93
0.659343 0.876202 6.87 196 140 93
0.667834 0.877477 6.88 196 140 93
0.676346 0.878753 6.89 196 140 93
0.684881 0.880028 6.9 196 140 93
0.694441 0.882579 6.92 196 140 93
-0 0 0 196 140 93
-0 0 0 196 140 93
-0 0 0 196 140 93
-0 0 0 196 140 93
-0 0 0 196 140 93
-0 0 0 196 140 93
-0 0 0 196 140 93
-0.284321 0.895304 6.96 196 140 93
-0.276703 0.895304 6.96 196 140 93
-0.268698 0.894018 6.95 196 140 93
-0.26109 0.894018 6.95 196 140 93
-0.253118 0.892731 6.94 196 140 93
-0.245522 0.892731 6.94 196 140 93
-0.237582 0.891445 6.93 196 140 93
-0.229665 0.890159 6.92 196 140 93
-0.221769 0.888872 6.91 196 140 93
-0.213896 0.887586 6.9 196 140 93
-0.206044 0.8863 6.89 196 140 93
-0.198214 0.885013 6.88 196 140 93
-0.190129 0.882441 6.86 196 140 93
-0.182354 0.881154 6.85 196 140 93
-0.1746 0.879868 6.84 196 140 93
-0.166869 0.878582 6.83 196 140 93
-0.159159 0.877295 6.82 196 140 93
-0.151472 0.876009 6.81 196 140 93
-0.143806 0.874722 6.8 196 140 93
-0.136162 0.873436 6.79 196 140 93
-0.12873 0.873436 6.79 196 140 93
-0.121119 0.87215 6.78 196 140 93
-0.11353 0.870863 6.77 196 140 93
-0.106119 0.870863 6.77 196 140 93
-0.0985632 0.869577 6.76 196 140 93
-0.0911637 0.869577 6.76 196 140 93
-0.0836403 0.868291 6.75 196 140 93
-0.0762517 0.868291 6.75 196 140 93
-0.0687611 0.867004 6.74 196 140 93
-0.0613835 0.867004 6.74 196 140 93
-0.0539258 0.865718 6.73 196 140 93
-0.04649 0.864432 6.72 196 140 93
-0.0391342 0.864432 6.72 196 140 93
-0.0317312 0.863145 6.71 196 140 93
-0.0243865 0.863145 6.71 196 140 93
-0.0170163 0.861859 6.7 196 140 93
-0.00968249 0.861859 6.7 196 140 93
-0.00234516 0.860573 6.69 196 140 93
0.00497027 0.859286 6.68 196 140 93
0.0122822 0.859286 6.68 196 140 93
0.0195648 0.858 6.67 196 140 93
0.0268658 0.858 6.67 196 140 93
0.0341668 0.858 6.67 196 140 93
0.0414678 0.858 6.67 196 140 93
0.0486956 0.856713 6.66 196 140 93
0.0559857 0.856713 6.66 196 140 93
0.0632757 0.856713 6.66 196 140 93
0.0705657 0.856713 6.66 196 140 93
0.0778558 0.856713 6.66 196 140 93
0.085018 0.855427 6.65 196 140 93
0.0922971 0.855427 6.65 196 140 93
0.0995761 0.855427 6.65 196 140 93
0.106855 0.855427 6.65 196 140 93
0.113963 0.854141 6.64 196 140 93
0.121231 0.854141 6.64 196 140 93
0.128499 0.854141 6.64 196 140 93
0.135767 0.854141 6.64 196 140 93
0.143035 0.854141 6.64 196 140 93
0.150303 0.854141 6.64 196 140 93
0.157572 0.854141 6.64 196 140 93
0.16484 0.854141 6.64 196 140 93
0.172108 0.854141 6.64 196 140 93
0.179376 0.854141 6.64 196 140 93
0.186644 0.854141 6.64 196 140 93
0.194204 0.855427 6.65 196 140 93
0.201483 0.855427 6.65 196 140 93
0.208763 0.855427 6.65 196 140 93
0.216042 0.855427 6.65 196 140 93
0.223321 0.855427 6.65 196 140 93
0.2306 0.855427 6.65 196 140 93
0.237879 0.855427 6.65 196 140 93
0.245158 0.855427 6.65 196 140 93
0.252057 0.854141 6.64 196 140 93
0.259326 0.854141 6.64 196 140 93
0.266192 0.852854 6.63 196 140 93
0.273449 0.852854 6.63 196 140 93
0.280707 0.852854 6.63 196 140 93
0.28753 0.851568 6.62 196 140 93
0.294776 0.851568 6.62 196 140 93
0.302022 0.851568 6.62 196 140 93
0.309735 0.852854 6.63 196 140 93
0.316993 0.852854 6.63 196 140 93
0.324739 0.854141 6.64 196 140 93
0.332507 0.855427 6.65 196 140 93
0.339786 0.855427 6.65 196 140 93
0.347065 0.855427 6.65 196 140 93
0.354877 0.856713 6.66 196 140 93
0.362711 0.858 6.67 196 140 93
0.370012 0.858 6.67 196 140 93
0.377879 0.859286 6.68 196 140 93
0.385191 0.859286 6.68 196 140 93
0.392503 0.859286 6.68 196 140 93
0.400413 0.860573 6.69 196 140 93
0.407736 0.860573 6.69 196 140 93
0.415679 0.861859 6.7 196 140 93
0.423013 0.861859 6.7 196 140 93
0.430347 0.861859 6.7 196 140 93
0.438334 0.863145 6.71 196 140 93
0.445679 0.863145 6.71 196 140 93
0.453023 0.863145 6.71 196 140 93
0.460368 0.863145 6.71 196 140 93
0.46841 0.864432 6.72 196 140 93
0.475766 0.864432 6.72 196 140 93
0.483121 0.864432 6.72 196 140 93
0.491207 0.865718 6.73 196 140 93
0.498574 0.865718 6.73 196 140 93
0.50594 0.865718 6.73 196 140 93
0.51407 0.867004 6.74 196 140 93
0.521447 0.867004 6.74 196 140 93
0.52961 0.868291 6.75 196 140 93
0.536998 0.868291 6.75 196 140 93
0.545193 0.869577 6.76 196 140 93
0.552593 0.869577 6.76 196 140 93
0.560821 0.870863 6.77 196 140 93
0.56907 0.87215 6.78 196 140 93
0.577342 0.873436 6.79 196 140 93
0.585636 0.874722 6.8 196 140 93
0.593951 0.876009 6.81 196 140 93
0.602288 0.877295 6.82 196 140 93
0.610648 0.878582 6.83 196 140 93
0.619029 0.879868 6.84 196 140 93
0.626516 0.879868 6.84 196 140 93
0.63493 0.881154 6.85 196 140 93
0.643366 0.882441 6.86 196 140 93
0.651823 0.883727 6.87 196 140 93
0.659343 0.883727 6.87 196 140 93
0.668805 0.8863 6.89 196 140 93
0.676346 0.8863 6.89 196 140 93
0.684881 0.887586 6.9 196 140 93
-0 0 0 196 140 93
-0 0 0 196 140 93
-0 0 0 196 140 93
-0 0 0 196 140 93
-0 0 0 196 140 93
-0 0 0 196 140 93
-0 0 0 196 140 93
-0.284321 0.902928 6.96 196 140 93
-0.276703 0.902928 6.96 196 140 93
-0.268698 0.901631 6.95 196 140 93
-0.26109 0.901631 6.95 196 140 93
-0.253118 0.900333 6.94 196 140 93
-0.245522 0.900333 6.94 196 140 93
-0.237582 0.899036 6.93 196 140 93
-0.229665 0.897739 6.92 196 140 93
-0.221769 0.896441 6.91 196 140 93
-0.213896 0.895144 6.9 196 140 93
-0.206044 0.893847 6.89 196 140 93
-0.198214 0.892549 6.88 196 140 93
-0.190129 0.889955 6.86 196 140 93
-0.182354 0.888658 6.85 196 140 93
-0.1746 0.88736 6.84 196 140 93
-0.166869 0.886063 6.83 196 140 93
-0.159159 0.884766 6.82 196 140 93
-0.151472 0.883468 6.81 196 140 93
-0.143806 0.882171 6.8 196 140 93
-0.136363 0.882171 6.8 196 140 93
-0.12873 0.880874 6.79 196 140 93
-0.121119 0.879576 6.78 196 140 93
-0.11353 0.878279 6.77 196 140 93
-0.106119 0.878279 6.77 196 140 93
-0.0985632 0.876982 6.76 196 140 93
-0.0911637 0.876982 6.76 196 140 93
-0.0836403 0.875684 6.75 196 140 93
-0.0762517 0.875684 6.75 196 140 93
-0.0687611 0.874387 6.74 196 140 93
-0.0613835 0.874387 6.74 196 140 93
-0.0539258 0.87309 6.73 196 140 93
-0.0465591 0.87309 6.73 196 140 93
-0.0391342 0.871792 6.72 196 140 93
-0.0317785 0.871792 6.72 196 140 93
-0.0243865 0.870495 6.71 196 140 93
-0.0170417 0.870495 6.71 196 140 93
-0.00968249 0.869198 6.7 196 140 93
-0.00234516 0.867901 6.69 196 140 93
0.00497771 0.867901 6.69 196 140 93
0.0122822 0.866603 6.68 196 140 93
0.0195941 0.866603 6.68 196 140 93
0.0268658 0.865306 6.67 196 140 93
0.0341668 0.865306 6.67 196 140 93
0.0414056 0.864009 6.66 196 140 93
0.0486956 0.864009 6.66 196 140 93
