ply
format ascii 1.0
comment Created by Open3D
element vertex 1347
property double x
property double y
property double z
property uchar red
property uchar green
property uchar blue
end_header
0.394011 0.214739 0.998 84 122 101
0.394311 0.214309 0.996 82 120 99
0.395401 0.214309 0.996 82 120 99
0.396094 0.214094 0.995 82 120 99
0.396783 0.213878 0.994 82 120 99
0.397872 0.213878 0.994 81 119 98
0.398558 0.213663 0.993 81 119 98
0.399645 0.213663 0.993 79 115 92
0.400732 0.213663 0.993 79 115 92
0.401819 0.213663 0.993 81 115 92
0.402906 0.213663 0.993 81 115 92
0.4044 0.213878 0.994 83 114 92
0.405488 0.213878 0.994 81 112 90
0.406576 0.213878 0.994 77 108 86
0.408074 0.214094 0.995 76 107 85
0.409163 0.214094 0.995 81 113 89
0.410664 0.214309 0.996 77 109 85
0.411755 0.214309 0.996 86 117 90
0.412845 0.214309 0.996 95 126 99
0.413935 0.214309 0.996 101 127 101
0.415442 0.214524 0.997 115 141 115
0.416951 0.214739 0.998 135 152 127
0.418044 0.214739 0.998 132 149 124
0.419136 0.214739 0.998 144 149 134
0.420228 0.214739 0.998 144 149 134
0.421321 0.214739 0.998 144 147 132
0.422413 0.214739 0.998 140 143 128
0.423506 0.214739 0.998 143 139 125
0.424598 0.214739 0.998 132 128 114
0.42569 0.214739 0.998 129 123 111
0.426783 0.214739 0.998 129 123 111
0.427447 0.214524 0.997 127 122 112
0.428538 0.214524 0.997 127 122 112
0.429198 0.214309 0.996 124 120 113
0.430288 0.214309 0.996 122 118 111
0.431379 0.214309 0.996 117 117 111
0.432469 0.214309 0.996 119 119 113
0.36033 0.234431 1.084 153 151 145
0.361517 0.234431 1.084 151 149 143
0.362369 0.234215 1.083 148 144 137
0.363218 0.233999 1.082 150 146 139
0.364066 0.233782 1.081 161 157 150
0.364574 0.23335 1.079 161 157 150
0.364399 0.232485 1.075 163 161 149
0.363535 0.231187 1.069 165 163 151
0.362317 0.229673 1.062 166 164 150
0.361426 0.228376 1.056 166 164 150
0.360178 0.226862 1.049 166 162 148
0.35926 0.225564 1.043 166 162 148
0.357983 0.22405 1.036 165 161 147
0.357037 0.222753 1.03 166 162 148
0.356773 0.221888 1.026 165 161 147
0.357548 0.221671 1.025 163 159 145
0.35832 0.221455 1.024 162 158 144
0.359441 0.221455 1.024 167 163 149
0.359857 0.221023 1.022 152 153 131
0.360976 0.221023 1.022 151 152 130
0.36174 0.220806 1.021 103 117 93
0.362502 0.22059 1.02 96 110 86
0.363619 0.22059 1.02 99 125 99
0.36402 0.220158 1.018 111 137 111
0.364776 0.219941 1.017 106 137 110
0.365529 0.219725 1.016 104 135 108
0.366281 0.219509 1.015 106 135 108
0.366668 0.219076 1.013 107 136 109
0.36705 0.218644 1.011 108 137 110
0.368157 0.218644 1.011 112 141 114
0.368898 0.218428 1.01 115 144 117
0.369638 0.218211 1.009 113 142 115
0.370742 0.218211 1.009 114 140 114
0.371847 0.218211 1.009 111 137 111
0.372581 0.217995 1.008 109 135 109
0.374055 0.218211 1.009 106 132 106
0.37516 0.218211 1.009 102 128 102
0.376264 0.218211 1.009 100 126 100
0.377369 0.218211 1.009 95 126 99
0.378473 0.218211 1.009 92 123 96
0.379201 0.217995 1.008 96 127 100
0.380305 0.217995 1.008 100 131 104
0.381408 0.217995 1.008 98 130 106
0.382132 0.217779 1.007 98 130 106
0.383234 0.217779 1.007 98 133 108
0.383955 0.217562 1.006 98 133 108
0.384673 0.217346 1.005 96 131 106
0.38539 0.21713 1.004 95 130 105
0.386104 0.216914 1.003 98 133 108
0.387201 0.216914 1.003 95 130 105
0.387912 0.216697 1.002 96 131 106
0.388621 0.216481 1.001 101 136 111
0.389717 0.216481 1.001 105 140 115
0.390812 0.216481 1.001 102 137 112
0.391516 0.216265 1 96 132 109
0.392218 0.216049 0.999 92 128 105
0.393312 0.216049 0.999 85 125 104
0.394011 0.215832 0.998 82 122 101
0.394707 0.215616 0.997 79 119 98
0.395401 0.2154 0.996 79 119 98
0.396492 0.2154 0.996 79 119 98
0.397183 0.215184 0.995 76 116 95
0.397872 0.214967 0.994 75 113 92
0.39896 0.214967 0.994 75 113 92
0.399645 0.214751 0.993 80 118 97
0.400732 0.214751 0.993 80 118 97
0.401819 0.214751 0.993 84 115 93
0.402906 0.214751 0.993 81 112 90
0.403993 0.214751 0.993 93 120 98
0.40508 0.214751 0.993 98 125 103
0.406576 0.214967 0.994 105 127 106
0.407664 0.214967 0.994 106 128 107
0.408752 0.214967 0.994 116 134 112
0.40984 0.214967 0.994 128 146 124
0.410928 0.214967 0.994 131 150 125
0.41243 0.215184 0.995 133 152 127
0.41352 0.215184 0.995 138 156 129
0.415025 0.2154 0.996 148 166 139
0.416116 0.2154 0.996 155 167 143
0.417206 0.2154 0.996 148 160 136
0.418716 0.215616 0.997 153 160 140
0.419807 0.215616 0.997 155 162 142
0.421321 0.215832 0.998 148 146 132
0.422413 0.215832 0.998 151 149 135
0.423506 0.215832 0.998 143 139 125
0.424598 0.215832 0.998 132 128 114
0.42569 0.215832 0.998 133 129 117
0.426783 0.215832 0.998 133 129 117
0.427447 0.215616 0.997 131 128 118
0.428538 0.215616 0.997 130 127 117
0.429629 0.215616 0.997 125 124 116
0.430288 0.2154 0.996 120 119 111
0.431379 0.2154 0.996 119 117 111
0.432469 0.2154 0.996 120 118 112
0.359144 0.235618 1.084 134 141 137
0.36033 0.235618 1.084 148 147 139
0.361183 0.235401 1.083 146 145 137
0.362034 0.235184 1.082 151 147 140
0.362883 0.234966 1.081 164 160 153
0.363729 0.234749 1.08 163 159 152
0.364236 0.234314 1.078 161 157 150
0.36406 0.233445 1.074 161 159 147
0.362855 0.231923 1.067 166 164 152
0.361976 0.230619 1.061 167 165 151
0.360741 0.229098 1.054 166 164 150
0.359492 0.227576 1.047 167 163 149
0.358571 0.226272 1.041 167 163 149
0.357637 0.224968 1.035 167 163 149
0.35669 0.223664 1.029 168 164 150
0.356426 0.222794 1.025 169 165 153
0.357199 0.222577 1.024 168 164 152
0.35797 0.22236 1.023 166 162 148
0.358738 0.222142 1.022 167 163 149
0.359505 0.221925 1.021 161 161 142
0.360269 0.221707 1.02 156 156 137
0.361386 0.221707 1.02 111 125 101
0.362147 0.22149 1.019 97 111 87
0.362906 0.221273 1.018 100 126 100
0.363663 0.221055 1.017 114 140 114
0.364417 0.220838 1.016 109 140 113
0.36517 0.220621 1.015 107 138 111
0.36592 0.220403 1.014 107 136 109
0.366306 0.219969 1.012 107 136 109
0.36705 0.219751 1.011 107 135 111
0.368157 0.219751 1.011 108 136 112
0.368898 0.219534 1.01 111 137 111
0.369638 0.219316 1.009 113 139 113
0.370742 0.219316 1.009 113 139 113
0.371847 0.219316 1.009 113 139 113
0.372951 0.219316 1.009 113 139 113
0.373685 0.219099 1.008 113 139 113
0.37516 0.219316 1.009 104 133 106
0.376264 0.219316 1.009 100 129 102
0.377369 0.219316 1.009 99 130 103
0.378098 0.219099 1.008 100 131 104
0.379201 0.219099 1.008 98 131 104
0.379928 0.218882 1.007 98 131 104
0.380651 0.218664 1.006 98 130 106
0.381753 0.218664 1.006 101 133 109
0.382854 0.218664 1.006 98 133 108
0.383573 0.218447 1.005 96 131 106
0.384291 0.21823 1.004 95 130 105
0.385006 0.218012 1.003 95 130 105
0.386104 0.218012 1.003 96 131 106
0.386815 0.217795 1.002 96 131 106
0.387912 0.217795 1.002 94 129 104
0.388621 0.217578 1.001 93 128 103
0.389717 0.217578 1.001 96 131 106
0.390812 0.217578 1.001 99 134 109
0.391516 0.21736 1 97 133 110
0.392218 0.217143 0.999 92 128 105
0.393312 0.217143 0.999 88 126 105
0.394011 0.216926 0.998 84 122 101
0.394707 0.216708 0.997 82 120 101
0.395401 0.216491 0.996 83 121 102
0.396492 0.216491 0.996 81 119 100
0.397183 0.216273 0.995 80 118 99
0.397872 0.216056 0.994 82 115 97
0.39896 0.216056 0.994 85 118 100
0.400048 0.216056 0.994 107 137 118
0.401136 0.216056 0.994 91 121 102
0.402224 0.216056 0.994 102 124 103
0.403312 0.216056 0.994 124 146 125
0.4044 0.216056 0.994 128 140 121
0.405488 0.216056 0.994 131 143 124
0.406167 0.215839 0.993 140 146 128
0.407254 0.215839 0.993 140 146 128
0.408341 0.215839 0.993 144 151 131
0.40984 0.216056 0.994 157 164 144
0.410515 0.215839 0.993 155 163 140
0.412016 0.216056 0.994 158 166 143
0.413104 0.216056 0.994 159 167 144
0.414192 0.216056 0.994 153 161 138
0.415698 0.216273 0.995 153 159 136
0.417206 0.216491 0.996 156 162 139
0.418296 0.216491 0.996 158 161 141
0.419386 0.216491 0.996 141 144 124
0.420899 0.216708 0.997 136 132 118
0.42199 0.216708 0.997 136 132 118
0.423081 0.216708 0.997 133 129 115
0.424173 0.216708 0.997 133 129 115
0.425264 0.216708 0.997 136 132 120
0.425928 0.216491 0.996 136 132 120
0.427018 0.216491 0.996 132 129 119
0.428108 0.216491 0.996 131 128 118
0.429198 0.216491 0.996 124 126 115
0.430288 0.216491 0.996 118 120 109
0.431379 0.216491 0.996 117 118 110
0.432469 0.216491 0.996 117 118 110
0.359144 0.236806 1.084 149 157 150
0.36033 0.236806 1.084 147 147 136
0.36085 0.236369 1.082 148 148 137
0.361699 0.236151 1.081 153 153 142
0.362547 0.235932 1.08 161 161 150
0.363056 0.235495 1.078 162 161 153
0.363222 0.23484 1.075 162 161 153
0.363043 0.233966 1.071 161 161 150
0.362175 0.232655 1.065 163 163 152
0.361293 0.231344 1.059 166 164 152
0.360057 0.229815 1.052 164 162 150
0 0 0 164 162 150
0.358226 0.227194 1.04 167 165 153
0.357292 0.225883 1.034 169 165 153
0.356344 0.224572 1.028 168 164 152
0.356426 0.223917 1.025 165 161 149
0.356501 0.223262 1.022 168 164 152
0.35727 0.223043 1.021 167 163 149
0.358036 0.222825 1.02 166 162 148
0.359153 0.222825 1.02 166 166 147
0.359916 0.222606 1.019 160 160 141
0.360677 0.222388 1.018 100 112 88
0.361792 0.222388 1.018 100 112 88
0.362549 0.222169 1.017 98 127 100
0.363305 0.221951 1.016 106 135 108
0.364059 0.221732 1.015 103 136 109
0.36517 0.221732 1.015 102 135 108
0.365559 0.221296 1.013 100 132 108
0.366306 0.221077 1.012 100 132 108
0.36705 0.220859 1.011 102 132 108
0.367793 0.22064 1.01 102 132 108
0.368898 0.22064 1.01 104 133 106
0.369638 0.220422 1.009 105 134 107
0.370742 0.220422 1.009 106 135 108
0.371847 0.220422 1.009 106 135 108
0.372581 0.220203 1.008 107 136 109
0.373685 0.220203 1.008 105 134 107
0.374788 0.220203 1.008 99 130 103
0.375891 0.220203 1.008 97 128 101
0.376995 0.220203 1.008 98 129 102
0.377723 0.219985 1.007 100 131 104
0.378449 0.219766 1.006 97 130 103
0.379173 0.219548 1.005 94 127 100
0.380273 0.219548 1.005 91 126 101
0.380994 0.219329 1.004 91 126 101
0.382093 0.219329 1.004 93 128 103
0.383192 0.219329 1.004 94 129 104
0.383908 0.219111 1.003 92 128 105
0.384622 0.218892 1.002 92 128 105
0.385719 0.218892 1.002 92 128 105
0.386429 0.218674 1.001 93 129 106
0.387525 0.218674 1.001 93 127 104
0.388621 0.218674 1.001 89 123 100
0.389327 0.218456 1 88 122 99
0.390422 0.218456 1 89 123 100
0.391125 0.218237 0.999 92 128 105
0.392218 0.218237 0.999 91 127 104
0.393312 0.218237 0.999 91 126 106
0.394011 0.218019 0.998 79 114 94
0.394707 0.2178 0.997 85 120 100
0.395401 0.217582 0.996 93 128 108
0.396492 0.217582 0.996 103 130 115
0.397582 0.217582 0.996 109 136 121
0.398272 0.217363 0.995 124 144 130
0.39896 0.217145 0.994 131 151 137
0.400048 0.217145 0.994 135 153 138
0.401136 0.217145 0.994 133 151 136
0.402224 0.217145 0.994 161 173 154
0.403312 0.217145 0.994 159 171 152
0.4044 0.217145 0.994 164 170 152
0.405488 0.217145 0.994 165 171 153
0.406576 0.217145 0.994 170 172 154
0.407664 0.217145 0.994 165 167 149
0.408341 0.216926 0.993 161 164 144
0.409428 0.216926 0.993 161 164 144
0.410515 0.216926 0.993 159 163 140
0.411601 0.216926 0.993 159 163 140
0.413104 0.217145 0.994 157 163 140
0.414192 0.217145 0.994 156 162 139
0.41528 0.217145 0.994 166 166 147
0.416787 0.217363 0.995 143 143 124
0.418296 0.217582 0.996 126 124 105
0.419386 0.217582 0.996 137 135 116
0.420476 0.217582 0.996 134 130 116
0.421567 0.217582 0.996 134 130 116
0.422657 0.217582 0.996 133 129 117
0.423747 0.217582 0.996 134 130 118
0.424837 0.217582 0.996 135 133 121
0.425928 0.217582 0.996 137 135 123
0.427018 0.217582 0.996 133 134 121
0.428108 0.217582 0.996 128 129 116
0.429198 0.217582 0.996 124 126 115
0.430288 0.217582 0.996 119 121 110
0.431379 0.217582 0.996 116 120 109
0.432469 0.217582 0.996 116 120 109
0.358481 0.237554 1.082 157 165 158
0.359333 0.237335 1.081 162 162 151
0.360183 0.237115 1.08 166 166 155
0.36103 0.236895 1.079 164 164 153
0.36154 0.236456 1.077 161 161 150
0.362382 0.236237 1.076 163 163 152
0.362546 0.235578 1.073 164 164 153
0.362026 0.23448 1.068 163 163 152
0.361154 0.233163 1.062 163 163 152
0.36027 0.231846 1.056 165 166 153
0.359372 0.230529 1.05 162 163 150
0.358462 0.229211 1.044 165 163 151
0.357193 0.227674 1.037 167 165 153
0.356601 0.226577 1.032 168 166 154
0.35565 0.225259 1.026 167 165 153
0.356078 0.22482 1.024 167 165 153
0.356152 0.224162 1.021 166 164 152
0.35692 0.223942 1.02 165 163 149
0.357685 0.223722 1.019 164 162 148
0.358801 0.223722 1.019 163 162 145
0.359563 0.223503 1.018 166 165 148
0.360323 0.223283 1.017 124 131 111
0.361081 0.223064 1.016 107 114 94
0.361836 0.222844 1.015 93 118 95
0.362948 0.222844 1.015 92 117 94
0.364059 0.222844 1.015 93 128 103
0.36481 0.222625 1.014 91 126 101
0.365559 0.222405 1.013 89 123 100
0.365944 0.221966 1.011 89 123 100
0.36705 0.221966 1.011 89 123 100
0.367793 0.221746 1.01 92 126 103
0.368533 0.221527 1.009 94 125 103
0.369638 0.221527 1.009 95 126 104
0.370742 0.221527 1.009 96 128 104
0.371478 0.221307 1.008 91 123 99
0.372581 0.221307 1.008 92 122 98
0.373685 0.221307 1.008 95 125 101
0.374416 0.221088 1.007 95 126 99
0.375519 0.221088 1.007 95 126 99
0.376247 0.220868 1.006 95 126 99
0.377348 0.220868 1.006 96 127 100
0.378073 0.220649 1.005 94 127 100
0.378796 0.220429 1.004 93 126 99
0.379895 0.220429 1.004 93 125 101
0.380614 0.22021 1.003 93 125 101
0.381712 0.22021 1.003 90 121 99
0.38281 0.22021 1.003 96 127 105
0.383142 0.219771 1.001 96 127 105
0.384238 0.219771 1.001 95 126 104
0.385334 0.219771 1.001 87 118 96
0.386429 0.219771 1.001 96 127 105
0.387525 0.219771 1.001 103 132 110
0.388233 0.219551 1 99 128 106
0.389327 0.219551 1 106 135 113
0.390031 0.219331 0.999 102 131 109
0.391125 0.219331 0.999 100 131 109
0.392218 0.219331 0.999 103 134 112
0.393312 0.219331 0.999 121 151 132
0.394011 0.219112 0.998 121 151 132
0.394707 0.218892 0.997 121 149 130
0.395401 0.218673 0.996 116 144 125
0.396492 0.218673 0.996 131 145 130
0.397582 0.218673 0.996 145 159 144
0.398672 0.218673 0.996 147 155 143
0.399361 0.218453 0.995 140 148 136
0.400048 0.218234 0.994 158 163 150
0.401136 0.218234 0.994 153 158 145
0.402224 0.218234 0.994 155 158 143
0.403717 0.218453 0.995 155 158 143
0.4044 0.218234 0.994 161 162 147
0.405488 0.218234 0.994 162 163 148
0.406576 0.218234 0.994 164 162 148
0.407664 0.218234 0.994 164 162 148
0.408752 0.218234 0.994 164 163 146
0.409428 0.218014 0.993 164 163 146
0.410515 0.218014 0.993 160 161 139
0.411601 0.218014 0.993 157 158 136
0.412688 0.218014 0.993 155 156 134
0.414192 0.218234 0.994 148 149 127
0.41528 0.218234 0.994 145 144 122
0.416368 0.218234 0.994 131 130 108
0.417456 0.218234 0.994 137 135 116
0.418965 0.218453 0.995 138 136 117
0.420054 0.218453 0.995 138 134 122
0.421567 0.218673 0.996 138 134 122
0.422233 0.218453 0.995 138 134 122
0.423322 0.218453 0.995 137 133 121
0.424411 0.218453 0.995 135 133 121
0.4255 0.218453 0.995 136 134 122
0.426589 0.218453 0.995 132 133 120
0.427678 0.218453 0.995 129 130 117
0.428767 0.218453 0.995 123 126 113
0.429856 0.218453 0.995 120 123 110
0.430946 0.218453 0.995 116 120 109
0.432035 0.218453 0.995 116 120 109
0.357818 0.238298 1.08 162 164 158
0.358668 0.238077 1.079 168 168 157
0.359182 0.237636 1.077 168 168 157
0.360027 0.237415 1.076 165 165 154
0.360533 0.236974 1.074 163 163 152
0.361035 0.236533 1.072 164 164 153
0.361195 0.235871 1.069 165 165 154
0.361348 0.235209 1.066 168 168 157
0.360814 0.234106 1.061 168 168 157
0.359929 0.232782 1.055 168 168 157
0.35903 0.231458 1.049 166 166 155
0.358118 0.230134 1.043 166 167 154
0.357193 0.22881 1.037 166 167 154
0.356601 0.227707 1.032 166 167 154
0.355997 0.226604 1.027 166 167 154
0.355382 0.225501 1.022 165 166 153
0.355803 0.225059 1.02 165 166 153
0.35622 0.224618 1.018 165 163 149
0.356983 0.224397 1.017 163 161 147
0.358097 0.224397 1.017 163 162 145
0.358857 0.224177 1.016 168 167 150
0.359969 0.224177 1.016 154 157 137
0.360725 0.223956 1.015 116 119 99
0.361836 0.223956 1.015 83 103 81
0.36259 0.223735 1.014 100 120 98
0.363341 0.223515 1.013 89 120 98
0.36445 0.223515 1.013 87 118 96
0.365198 0.223294 1.012 84 120 97
0.365944 0.223073 1.011 86 122 99
0.366687 0.222853 1.01 89 125 102
0.367429 0.222632 1.009 89 125 102
0.368533 0.222632 1.009 92 126 103
0.369638 0.222632 1.009 92 126 103
0.370375 0.222411 1.008 91 125 102
0.371478 0.222411 1.008 87 121 98
0.372212 0.222191 1.007 89 121 97
0.372943 0.22197 1.006 90 122 98
0.374044 0.22197 1.006 90 122 98
0.375146 0.22197 1.006 91 123 99
0.375873 0.22175 1.005 95 126 99
0.376598 0.221529 1.004 98 129 102
0.377321 0.221308 1.003 101 129 105
0.378041 0.221088 1.002 98 126 102
0.379138 0.221088 1.002 97 124 102
0.379855 0.220867 1.001 106 133 111
0.380951 0.220867 1.001 109 138 116
0.382047 0.220867 1.001 110 139 117
0.38276 0.220646 1 104 132 113
0.383854 0.220646 1 106 134 115
0.384949 0.220646 1 112 138 119
0.385657 0.220426 0.999 119 145 126
0.386751 0.220426 0.999 123 146 128
0.387844 0.220426 0.999 131 154 136
0.388938 0.220426 0.999 139 161 140
0.390031 0.220426 0.999 133 155 134
0.390733 0.220205 0.998 129 153 132
0.391826 0.220205 0.998 137 161 140
0.392918 0.220205 0.998 139 162 144
0.394011 0.220205 0.998 138 161 143
0.394311 0.219764 0.996 139 160 144
0.395401 0.219764 0.996 138 159 143
0.396492 0.219764 0.996 149 160 146
0.397582 0.219764 0.996 156 167 153
0.398672 0.219764 0.996 154 163 149
0.399361 0.219543 0.995 152 161 147
0.40045 0.219543 0.995 159 164 151
0.401539 0.219543 0.995 158 163 150
0.402628 0.219543 0.995 158 163 150
0.403717 0.219543 0.995 157 162 149
0.404807 0.219543 0.995 161 164 151
0.405488 0.219322 0.994 160 163 150
0.406576 0.219322 0.994 163 161 149
0.407664 0.219322 0.994 163 161 149
0.408341 0.219102 0.993 159 157 143
0.409428 0.219102 0.993 164 162 148
0.410515 0.219102 0.993 151 150 128
0.411601 0.219102 0.993 146 145 123
0.412688 0.219102 0.993 147 146 124
0.413775 0.219102 0.993 144 143 121
0.414862 0.219102 0.993 141 140 118
0.416368 0.219322 0.994 141 140 118
0.417036 0.219102 0.993 141 140 118
0.418544 0.219322 0.994 140 139 117
0.419632 0.219322 0.994 139 135 121
0.42072 0.219322 0.994 140 136 122
0.421808 0.219322 0.994 140 136 124
0.422896 0.219322 0.994 138 134 122
0.423984 0.219322 0.994 137 133 121
0.425072 0.219322 0.994 137 133 121
0.42616 0.219322 0.994 134 132 120
0.427248 0.219322 0.994 132 130 118
0.428336 0.219322 0.994 126 127 114
0.429424 0.219322 0.994 122 123 110
0.430513 0.219322 0.994 116 121 108
0.431601 0.219322 0.994 115 120 107
0.356824 0.238816 1.077 151 153 147
0.357671 0.238594 1.076 171 171 160
0.358182 0.238151 1.074 165 165 154
0.359023 0.237929 1.073 166 166 155
0.359526 0.237485 1.071 166 166 155
0.360025 0.237042 1.069 165 165 154
0.360181 0.236377 1.066 165 165 154
0.360331 0.235711 1.063 166 166 155
0.359794 0.234603 1.058 169 169 158
0.359246 0.233494 1.053 169 169 158
0.358346 0.232164 1.047 165 165 154
0.357775 0.231055 1.042 165 166 153
0.356849 0.229724 1.036 165 166 153
0.356255 0.228616 1.031 167 165 153
0.35565 0.227507 1.026 170 168 156
0.355382 0.22662 1.022 168 166 154
0.355455 0.225955 1.019 167 165 153
0.35587 0.225511 1.017 165 163 149
0.356632 0.22529 1.016 161 159 145
0.357745 0.22529 1.016 163 162 145
0.358503 0.225068 1.015 165 164 147
0.359614 0.225068 1.015 166 166 147
0.360725 0.225068 1.015 158 158 139
0.36148 0.224846 1.014 116 129 108
0.362232 0.224624 1.013 110 123 102
0.363341 0.224624 1.013 96 118 97
0.36445 0.224624 1.013 87 109 88
0.365198 0.224403 1.012 90 118 99
0.365944 0.224181 1.011 92 120 101
0.366687 0.223959 1.01 92 120 101
0.367429 0.223737 1.009 90 118 99
0.368533 0.223737 1.009 89 117 98
0.369638 0.223737 1.009 91 119 100
0.370375 0.223516 1.008 93 121 102
0.371478 0.223516 1.008 89 117 98
0.371842 0.223072 1.006 88 115 93
0.372573 0.22285 1.005 102 129 107
0.373301 0.222629 1.004 106 130 109
0.3744 0.222629 1.004 108 132 111
0.375499 0.222629 1.004 112 132 110
0.376223 0.222407 1.003 114 134 112
0.376568 0.221963 1.001 119 139 117
0.377664 0.221963 1.001 127 147 125
0.378381 0.221742 1 133 152 132
0.379096 0.22152 0.999 136 155 135
0.38019 0.22152 0.999 138 156 139
0.381283 0.22152 0.999 136 154 137
0.381994 0.221298 0.998 138 154 137
0.383086 0.221298 0.998 137 153 136
0.384179 0.221298 0.998 138 154 137
0.385271 0.221298 0.998 138 154 137
0.386364 0.221298 0.998 138 153 133
0.387456 0.221298 0.998 139 154 134
0.388548 0.221298 0.998 139 154 134
0.389641 0.221298 0.998 139 154 134
0.390733 0.221298 0.998 144 159 139
0.391826 0.221298 0.998 147 162 142
0.392524 0.221076 0.997 147 161 144
0.393221 0.220855 0.996 148 162 145
0.394311 0.220855 0.996 152 163 147
0.395401 0.220855 0.996 154 165 149
0.396492 0.220855 0.996 157 166 150
0.397582 0.220855 0.996 158 167 151
0.398672 0.220855 0.996 164 167 154
0.399762 0.220855 0.996 164 167 154
0.400853 0.220855 0.996 164 167 152
0.401943 0.220855 0.996 166 169 154
0.403033 0.220855 0.996 166 167 152
0.404123 0.220855 0.996 162 163 148
0.405213 0.220855 0.996 163 161 147
0.405896 0.220633 0.995 157 155 141
0.406576 0.220411 0.994 156 154 142
0.407664 0.220411 0.994 153 151 139
0.408752 0.220411 0.994 151 147 133
0.409428 0.220189 0.993 147 143 129
0.410515 0.220189 0.993 139 138 116
0.411601 0.220189 0.993 141 140 118
0.412688 0.220189 0.993 146 143 121
0.413775 0.220189 0.993 146 143 121
0.414862 0.220189 0.993 145 142 120
0.415949 0.220189 0.993 145 142 120
0.417036 0.220189 0.993 142 139 117
0.418123 0.220189 0.993 142 139 117
0.41921 0.220189 0.993 143 140 123
0.420297 0.220189 0.993 143 140 123
0.421384 0.220189 0.993 140 136 124
0.422471 0.220189 0.993 138 134 122
0.423558 0.220189 0.993 137 133 121
0.424645 0.220189 0.993 137 133 121
0.425732 0.220189 0.993 136 132 120
0.426819 0.220189 0.993 133 129 117
0.428336 0.220411 0.994 129 127 115
0.429424 0.220411 0.994 123 121 109
0.430079 0.220189 0.993 116 119 106
0.431166 0.220189 0.993 117 120 107
0.355831 0.239327 1.074 157 159 153
0.356341 0.238881 1.072 170 172 161
0.357181 0.238658 1.071 161 163 152
0.357684 0.238213 1.069 163 165 154
0.358183 0.237767 1.067 166 168 157
0.358677 0.237321 1.065 169 169 158
0.35883 0.236653 1.062 168 168 157
0.358975 0.235984 1.059 168 168 157
0.358774 0.235093 1.055 170 170 159
0.358223 0.233979 1.05 170 170 159
0.357661 0.232865 1.045 166 166 155
0.357088 0.231751 1.04 164 165 152
0.356504 0.230636 1.035 164 165 152
0.355909 0.229522 1.03 169 170 157
0.35565 0.228631 1.026 168 169 156
0.355382 0.227739 1.022 168 169 154
0.355106 0.226848 1.018 165 166 151
0.35552 0.226402 1.016 163 165 147
0.356281 0.22618 1.015 161 163 145
0.357392 0.22618 1.015 165 164 147
0.358503 0.22618 1.015 165 164 147
0.35926 0.225957 1.014 164 163 146
0.36037 0.225957 1.014 160 159 142
0.361124 0.225734 1.013 163 165 147
0.362232 0.225734 1.013 163 165 147
0.363341 0.225734 1.013 154 166 147
0.36445 0.225734 1.013 141 153 134
0.365198 0.225511 1.012 135 150 130
0.365944 0.225288 1.011 124 139 119
0.366687 0.225065 1.01 117 132 112
0.367429 0.224843 1.009 129 144 124
0.368533 0.224843 1.009 143 158 138
0.369638 0.224843 1.009 147 162 142
0.370375 0.22462 1.008 142 159 139
0.371109 0.224397 1.007 140 157 137
0.371842 0.224174 1.006 159 174 154
0.372573 0.223951 1.005 159 174 154
0.373301 0.223728 1.004 151 166 146
0.374027 0.223506 1.003 148 163 143
0.375125 0.223506 1.003 150 160 141
0.375848 0.223283 1.002 150 160 141
0.376568 0.22306 1.001 155 161 143
0.376909 0.222614 0.999 159 165 147
0.378003 0.222614 0.999 151 156 141
0.378717 0.222391 0.998 152 157 142
0.379809 0.222391 0.998 152 157 142
0.380902 0.222391 0.998 155 160 145
0.381994 0.222391 0.998 153 158 143
0.383086 0.222391 0.998 146 151 136
0.384179 0.222391 0.998 151 156 141
0.384885 0.222169 0.997 153 158 143
0.385977 0.222169 0.997 153 159 141
0.38668 0.221946 0.996 154 160 142
0.38777 0.221946 0.996 155 161 143
0.38886 0.221946 0.996 157 163 145
0.38995 0.221946 0.996 158 165 145
0.391041 0.221946 0.996 159 166 146
0.392131 0.221946 0.996 160 166 148
0.393221 0.221946 0.996 159 165 147
0.394311 0.221946 0.996 161 165 147
0.395401 0.221946 0.996 163 167 149
0.396492 0.221946 0.996 163 166 151
0.397582 0.221946 0.996 163 166 151
0.398672 0.221946 0.996 166 167 152
0.399762 0.221946 0.996 165 166 151
0.400853 0.221946 0.996 165 166 151
0.401943 0.221946 0.996 165 166 151
0.403033 0.221946 0.996 161 162 147
0.404123 0.221946 0.996 155 156 141
0.405213 0.221946 0.996 155 153 141
0.405896 0.221723 0.995 148 146 134
0.406576 0.2215 0.994 148 144 132
0.407664 0.2215 0.994 148 144 132
0.408341 0.221277 0.993 147 143 131
0.409428 0.221277 0.993 145 141 129
0.410515 0.221277 0.993 143 141 122
0.411601 0.221277 0.993 140 138 119
0.412688 0.221277 0.993 141 139 120
0.413359 0.221054 0.992 143 141 122
0.414444 0.221054 0.992 146 142 123
0.41553 0.221054 0.992 145 141 122
0.416196 0.220832 0.991 141 137 118
0.417281 0.220832 0.991 141 137 118
0.418366 0.220832 0.991 143 137 123
0.41945 0.220832 0.991 145 139 125
0.42096 0.221054 0.992 143 137 123
0.422045 0.221054 0.992 140 134 120
0.423131 0.221054 0.992 139 133 119
0.424217 0.221054 0.992 139 133 119
0.425732 0.221277 0.993 139 133 119
0.426819 0.221277 0.993 136 130 116
0.427906 0.221277 0.993 130 126 114
0.428992 0.221277 0.993 123 119 107
0.430079 0.221277 0.993 116 117 104
0.431166 0.221277 0.993 115 116 103
0.354837 0.239832 1.071 157 162 158
0.355344 0.239384 1.069 166 167 159
0.355847 0.238936 1.067 160 161 153
0.356346 0.238488 1.065 163 163 152
0.35684 0.23804 1.063 168 168 157
0.35733 0.237592 1.061 169 169 158
0.357816 0.237144 1.059 170 170 159
0.357958 0.236473 1.056 172 169 159
0.357754 0.235577 1.052 172 169 159
0.357541 0.234681 1.048 172 169 159
0.356977 0.233562 1.043 173 170 160
0.356745 0.232666 1.039 174 172 160
0.35616 0.231546 1.034 171 169 157
0.355564 0.230426 1.029 171 169 157
0.355304 0.229531 1.025 170 168 156
0.355382 0.228859 1.022 168 166 152
0.355106 0.227963 1.018 167 165 151
0.35552 0.227515 1.016 166 164 150
0.356281 0.227291 1.015 164 162 148
0.357392 0.227291 1.015 170 169 152
0.35815 0.227067 1.014 167 166 149
0.358906 0.226844 1.013 165 164 147
0.360015 0.226844 1.013 163 162 145
0.361124 0.226844 1.013 160 158 144
0.362232 0.226844 1.013 159 157 143
0.363341 0.226844 1.013 159 161 143
0.36409 0.22662 1.012 163 165 147
0.365198 0.22662 1.012 162 164 146
0.365944 0.226396 1.011 161 163 145
0.36705 0.226396 1.011 164 167 147
0.367793 0.226172 1.01 166 169 149
0.368533 0.225948 1.009 163 166 146
0.369638 0.225948 1.009 164 167 147
0.370375 0.225724 1.008 161 164 144
0.371109 0.2255 1.007 159 162 142
0.371842 0.225276 1.006 167 171 153
0.372202 0.224828 1.004 162 166 148
0.373301 0.224828 1.004 157 161 143
0.374027 0.224604 1.003 162 166 148
0.374751 0.22438 1.002 166 168 150
0.375848 0.22438 1.002 162 164 146
0.376568 0.224156 1.001 162 163 148
0.377664 0.224156 1.001 164 165 150
0.378381 0.223932 1 162 163 148
0.379096 0.223708 0.999 162 163 148
0.38019 0.223708 0.999 161 162 147
0.381283 0.223708 0.999 162 163 148
0.382377 0.223708 0.999 164 165 150
0.383086 0.223485 0.998 162 163 148
0.384179 0.223485 0.998 161 163 145
0.384885 0.223261 0.997 163 165 147
0.385589 0.223037 0.996 167 166 149
0.38668 0.223037 0.996 168 167 150
0.38777 0.223037 0.996 167 167 148
0.38886 0.223037 0.996 166 166 147
0.38995 0.223037 0.996 166 166 147
0.391041 0.223037 0.996 170 170 151
0.391737 0.222813 0.995 170 170 151
0.392826 0.222813 0.995 168 168 149
0.393915 0.222813 0.995 167 166 149
0.395401 0.223037 0.996 167 166 149
0.396492 0.223037 0.996 166 165 148
0.397582 0.223037 0.996 164 163 146
0.398672 0.223037 0.996 161 157 143
0.399762 0.223037 0.996 160 156 142
0.400853 0.223037 0.996 161 157 143
0.401943 0.223037 0.996 158 154 140
0.403033 0.223037 0.996 155 151 139
0.404123 0.223037 0.996 154 150 138
0.405213 0.223037 0.996 153 149 137
0.405896 0.222813 0.995 150 146 134
0.406576 0.222589 0.994 148 144 132
0.407664 0.222589 0.994 148 144 132
0.408341 0.222365 0.993 147 143 131
0.409428 0.222365 0.993 146 142 130
0.410515 0.222365 0.993 144 140 126
0.411187 0.222141 0.992 145 141 127
0.411857 0.221917 0.991 145 142 125
0.412942 0.221917 0.991 146 143 126
0.414027 0.221917 0.991 147 142 125
0.415111 0.221917 0.991 145 140 123
0.415776 0.221693 0.99 141 136 119
0.41686 0.221693 0.99 141 136 119
0.418366 0.221917 0.991 143 134 121
0.41945 0.221917 0.991 143 134 121
0.420535 0.221917 0.991 145 136 123
0.42162 0.221917 0.991 144 135 122
0.422705 0.221917 0.991 140 134 120
0.423789 0.221917 0.991 141 135 121
0.425303 0.222141 0.992 140 134 120
0.426389 0.222141 0.992 138 132 118
0.427475 0.222141 0.992 132 128 116
0.428992 0.222365 0.993 125 121 109
0.429646 0.222141 0.992 116 117 104
0.430732 0.222141 0.992 116 117 104
0.353511 0.240105 1.067 159 164 160
0.354014 0.239655 1.065 175 176 168
0.354847 0.23943 1.064 162 163 155
0.355008 0.238754 1.061 162 162 151
0.355498 0.238304 1.059 168 168 157
0.355983 0.237854 1.057 172 169 159
0.356464 0.237404 1.055 173 170 160
0.356602 0.236729 1.052 175 172 162
0.356734 0.236054 1.049 174 171 161
0.356858 0.235379 1.046 173 170 160
0.356634 0.234479 1.042 174 171 161
0.356058 0.233354 1.037 174 172 160
0.355815 0.232454 1.033 174 172 160
0.355564 0.231554 1.029 171 169 157
0.355304 0.230653 1.025 170 168 156
0.355382 0.229978 1.022 168 166 152
0.355106 0.229078 1.018 170 168 154
0.35552 0.228628 1.016 170 168 154
0.356281 0.228403 1.015 170 168 154
0.35704 0.228178 1.014 170 168 154
0.357797 0.227953 1.013 166 164 150
0.358906 0.227953 1.013 167 165 151
0.360015 0.227953 1.013 167 165 151
0.361124 0.227953 1.013 166 164 150
0.362232 0.227953 1.013 165 163 149
0.363341 0.227953 1.013 165 163 149
0.36409 0.227728 1.012 168 166 152
0.365198 0.227728 1.012 168 167 150
0.365944 0.227503 1.011 168 167 150
0.36705 0.227503 1.011 167 167 148
0.367793 0.227278 1.01 167 167 148
0.368898 0.227278 1.01 170 168 149
0.369638 0.227053 1.009 167 165 146
0.370375 0.226828 1.008 168 166 147
0.371109 0.226603 1.007 170 168 149
0.371842 0.226378 1.006 170 168 149
0.372202 0.225928 1.004 170 168 149
0.373301 0.225928 1.004 169 166 149
0.374027 0.225703 1.003 170 167 150
0.374751 0.225478 1.002 175 172 155
0.375472 0.225253 1.001 173 170 153
0.376568 0.225253 1.001 168 164 150
0.377287 0.225028 1 173 169 155
0.378381 0.225028 1 174 170 156
0.379476 0.225028 1 168 164 150
0.38057 0.225028 1 169 165 151
0.381283 0.224803 0.999 172 168 154
0.382377 0.224803 0.999 173 169 155
0.38347 0.224803 0.999 172 168 154
0.384179 0.224578 0.998 172 169 152
0.384885 0.224353 0.997 170 167 150
0.385977 0.224353 0.997 172 168 149
0.38668 0.224128 0.996 172 168 149
0.38777 0.224128 0.996 172 169 147
0.38847 0.223903 0.995 172 169 147
0.389559 0.223903 0.995 169 168 146
0.390648 0.223903 0.995 170 169 147
0.391737 0.223903 0.995 170 168 149
0.392826 0.223903 0.995 168 166 147
0.393915 0.223903 0.995 168 166 147
0.395004 0.223903 0.995 166 164 145
0.396492 0.224128 0.996 163 160 143
0.397582 0.224128 0.996 160 157 140
0.398672 0.224128 0.996 160 154 140
0.399762 0.224128 0.996 156 150 136
0.400853 0.224128 0.996 155 149 135
0.401943 0.224128 0.996 155 149 135
0.403033 0.224128 0.996 155 149 137
0.404123 0.224128 0.996 155 149 137
0.405213 0.224128 0.996 152 148 136
0.405896 0.223903 0.995 150 146 134
0.406576 0.223678 0.994 148 144 132
0.407664 0.223678 0.994 150 146 134
0.408341 0.223453 0.993 150 146 134
0.409428 0.223453 0.993 146 142 130
0.410515 0.223453 0.993 145 141 127
0.411187 0.223228 0.992 148 144 130
0.411857 0.223003 0.991 148 144 130
0.412942 0.223003 0.991 148 144 130
0.413609 0.222778 0.99 148 142 128
0.414693 0.222778 0.99 147 141 127
0.415776 0.222778 0.99 144 135 122
0.41686 0.222778 0.99 143 134 121
0.417944 0.222778 0.99 143 134 121
0.419027 0.222778 0.99 142 133 120
0.420111 0.222778 0.99 144 135 122
0.42162 0.223003 0.991 144 135 122
0.422705 0.223003 0.991 144 135 122
0.423789 0.223003 0.991 144 135 122
0.424874 0.223003 0.991 142 136 122
0.426389 0.223228 0.992 138 132 118
0.427475 0.223228 0.992 130 128 114
0.42856 0.223228 0.992 127 125 111
0.429213 0.223003 0.991 118 119 106
0.430732 0.223228 0.992 121 122 109
0.352186 0.240369 1.063 140 145 141
0.352685 0.239917 1.061 166 167 159
0.353179 0.239464 1.059 168 169 161
0.354004 0.239238 1.058 171 171 160
0.35449 0.238786 1.056 171 171 160
0.354973 0.238334 1.054 175 173 161
0.355451 0.237882 1.052 177 175 163
0.355585 0.237203 1.049 180 176 164
0.355713 0.236525 1.046 180 176 164
0.356176 0.236073 1.044 181 177 165
0.355607 0.234942 1.039 181 177 165
0.355715 0.234264 1.036 181 177 165
0.355471 0.233359 1.032 180 176 164
0.355564 0.232681 1.029 177 173 159
0.355304 0.231776 1.025 176 172 158
0.355382 0.231098 1.022 174 170 156
0.355106 0.230193 1.018 174 170 156
0.35552 0.229741 1.016 174 170 156
0.356281 0.229515 1.015 174 170 156
0.35704 0.229289 1.014 173 169 155
0.357797 0.229063 1.013 174 170 156
0.358906 0.229063 1.013 174 172 158
0.360015 0.229063 1.013 175 173 159
0.361124 0.229063 1.013 172 170 156
0.362232 0.229063 1.013 171 169 155
0.363341 0.229063 1.013 171 169 155
0.36409 0.228837 1.012 172 170 156
0.365198 0.228837 1.012 172 170 156
0.366306 0.228837 1.012 172 170 156
0.36705 0.228611 1.011 172 171 154
0.368157 0.228611 1.011 172 171 154
0.368898 0.228384 1.01 174 171 154
0.369638 0.228158 1.009 174 171 154
0.370375 0.227932 1.008 175 173 154
0.371109 0.227706 1.007 175 173 154
0.371842 0.22748 1.006 175 173 154
0.372202 0.227028 1.004 175 173 154
0.372929 0.226802 1.003 175 173 154
0.374027 0.226802 1.003 175 173 154
0.374751 0.226575 1.002 177 174 157
0.375472 0.226349 1.001 179 176 159
0.376568 0.226349 1.001 175 172 155
0.377664 0.226349 1.001 176 173 156
0.37876 0.226349 1.001 176 170 156
0.379476 0.226123 1 175 169 155
0.38057 0.226123 1 176 170 156
0.381665 0.226123 1 175 169 155
0.38276 0.226123 1 175 170 153
0.38347 0.225897 0.999 175 170 153
0.384179 0.225671 0.998 174 169 152
0.385271 0.225671 0.998 171 166 149
0.385977 0.225445 0.997 172 165 147
0.38668 0.225219 0.996 172 165 147
0.38777 0.225219 0.996 170 167 145
0.38847 0.224993 0.995 169 166 144
0.389559 0.224993 0.995 168 165 143
0.390648 0.224993 0.995 167 164 142
0.391737 0.224993 0.995 162 160 141
0.392826 0.224993 0.995 161 159 140
0.393915 0.224993 0.995 160 158 139
0.395004 0.224993 0.995 159 157 138
0.396492 0.225219 0.996 158 155 138
0.397582 0.225219 0.996 158 155 138
0.398672 0.225219 0.996 158 149 136
0.399762 0.225219 0.996 156 147 134
0.400853 0.225219 0.996 156 147 134
0.401943 0.225219 0.996 157 148 135
0.403033 0.225219 0.996 156 150 138
0.404123 0.225219 0.996 156 150 138
0.405213 0.225219 0.996 154 148 136
0.405896 0.224993 0.995 153 147 135
0.406576 0.224766 0.994 150 146 134
0.407664 0.224766 0.994 150 146 134
0.408341 0.22454 0.993 147 143 131
0.409428 0.22454 0.993 146 142 130
0.410101 0.224314 0.992 146 142 128
0.411187 0.224314 0.992 147 143 129
0.411857 0.224088 0.991 147 143 129
0.412942 0.224088 0.991 148 144 130
0.413609 0.223862 0.99 147 143 129
0.414693 0.223862 0.99 145 141 127
0.415356 0.223636 0.989 145 139 125
0.416439 0.223636 0.989 142 136 122
0.417521 0.223636 0.989 144 135 122
0.419027 0.223862 0.99 145 136 123
0.420111 0.223862 0.99 145 136 123
0.421194 0.223862 0.99 145 136 123
0.422278 0.223862 0.99 144 135 122
0.423789 0.224088 0.991 144 135 122
0.424874 0.224088 0.991 141 135 121
0.425959 0.224088 0.991 135 129 115
0.427475 0.224314 0.992 128 126 112
0.42856 0.224314 0.992 125 123 109
0.429646 0.224314 0.992 120 121 108
0.430732 0.224314 0.992 119 120 107
0.350861 0.240624 1.059 120 125 121
0.351355 0.24017 1.057 170 171 163
0.351845 0.239716 1.055 163 164 156
0.352665 0.239488 1.054 175 175 164
0.353148 0.239034 1.052 171 171 160
0.353626 0.238579 1.05 176 172 160
0.354099 0.238125 1.048 177 173 161
0.354568 0.237671 1.046 182 176 164
0.355033 0.237216 1.044 183 177 165
0.355152 0.236534 1.041 183 177 165
0.355265 0.235853 1.038 183 177 165
0.355371 0.235171 1.035 183 177 165
0.355126 0.234262 1.031 184 178 166
0.355218 0.233581 1.028 186 180 166
0.354957 0.232672 1.024 184 178 164
0.355382 0.232217 1.022 180 176 162
0.355455 0.231536 1.019 179 175 161
0.35552 0.230854 1.016 177 173 159
0.356281 0.230627 1.015 176 172 158
0.35704 0.2304 1.014 180 176 162
0.357797 0.230172 1.013 183 179 165
0.358906 0.230172 1.013 181 179 165
0.360015 0.230172 1.013 181 179 165
0.361124 0.230172 1.013 180 178 164
0.362232 0.230172 1.013 179 177 163
0.363341 0.230172 1.013 179 177 163
0.36445 0.230172 1.013 178 176 162
0.365198 0.229945 1.012 179 177 163
0.366306 0.229945 1.012 179 177 163
0.36705 0.229718 1.011 177 176 159
0.368157 0.229718 1.011 180 179 162
0.368898 0.229491 1.01 181 178 161
0.369638 0.229263 1.009 179 176 159
0.370375 0.229036 1.008 179 177 158
0.371109 0.228809 1.007 176 174 155
0.371842 0.228582 1.006 179 175 156
0.372202 0.228127 1.004 181 177 158
0.372929 0.2279 1.003 181 177 158
0.374027 0.2279 1.003 179 175 156
0.374751 0.227673 1.002 179 174 157
0.375848 0.227673 1.002 181 176 159
0.376568 0.227446 1.001 181 176 159
0.377664 0.227446 1.001 176 171 154
0.37876 0.227446 1.001 174 168 154
0.379855 0.227446 1.001 175 169 155
0.380951 0.227446 1.001 176 170 156
0.382047 0.227446 1.001 170 164 150
0.38276 0.227219 1 172 164 148
0.38347 0.226991 0.999 172 164 148
0.384564 0.226991 0.999 172 164 148
0.385271 0.226764 0.998 171 163 147
0.386364 0.226764 0.998 170 163 145
0.387068 0.226537 0.997 169 162 144
0.38777 0.22631 0.996 167 160 142
0.38886 0.22631 0.996 164 157 139
0.38995 0.22631 0.996 161 157 138
0.391041 0.22631 0.996 161 157 138
0.392131 0.22631 0.996 159 154 137
0.392826 0.226082 0.995 157 152 135
0.393915 0.226082 0.995 154 150 136
0.395004 0.226082 0.995 154 150 136
0.396492 0.22631 0.996 155 151 137
0.397582 0.22631 0.996 157 153 139
0.398672 0.22631 0.996 156 150 136
0.399762 0.22631 0.996 154 148 134
0.400853 0.22631 0.996 155 149 135
0.401943 0.22631 0.996 156 150 136
0.403033 0.22631 0.996 157 151 137
0.404123 0.22631 0.996 156 150 136
0.404807 0.226082 0.995 156 150 136
0.405896 0.226082 0.995 154 148 134
0.406576 0.225855 0.994 153 147 135
0.407664 0.225855 0.994 152 146 134
0.408341 0.225628 0.993 147 143 131
0.409428 0.225628 0.993 146 142 130
0.410101 0.225401 0.992 146 142 128
0.410772 0.225174 0.991 146 142 128
0.411857 0.225174 0.991 147 143 129
0.412525 0.224946 0.99 148 144 130
0.413609 0.224946 0.99 148 142 128
0.414693 0.224946 0.99 147 141 127
0.415356 0.224719 0.989 145 139 125
0.416018 0.224492 0.988 143 137 123
0.417521 0.224719 0.989 142 136 122
0.419027 0.224946 0.99 143 137 123
0.420111 0.224946 0.99 147 141 127
0.421194 0.224946 0.99 146 140 126
0.422278 0.224946 0.99 139 133 119
0.423789 0.225174 0.991 138 132 118
0.424874 0.225174 0.991 136 132 118
0.426389 0.225401 0.992 133 129 115
0.427475 0.225401 0.992 128 126 114
0.42856 0.225401 0.992 124 122 110
0.429646 0.225401 0.992 119 120 107
0.430732 0.225401 0.992 115 116 103
0.349536 0.240871 1.055 116 126 121
0.350358 0.240643 1.054 156 156 150
0.350845 0.240186 1.052 156 156 150
0.351327 0.23973 1.05 173 170 160
0.352141 0.239501 1.049 168 165 155
0.352952 0.239273 1.048 170 166 154
0.353423 0.238816 1.046 175 171 159
0.35389 0.23836 1.044 181 175 163
0.354353 0.237903 1.042 183 177 165
0.35447 0.237218 1.039 184 178 166
0.354581 0.236533 1.036 184 178 166
0.354685 0.235848 1.033 185 179 167
0.354782 0.235163 1.03 186 180 168
0.355218 0.234707 1.028 186 180 168
0.354957 0.233793 1.024 186 180 168
0.355382 0.233337 1.022 185 179 167
0.355455 0.232652 1.019 184 178 166
0.35587 0.232195 1.017 183 179 167
0.356281 0.231739 1.015 184 180 168
0.357392 0.231739 1.015 184 180 168
0.357797 0.231282 1.013 184 180 168
0.358906 0.231282 1.013 184 180 166
0.360015 0.231282 1.013 183 179 165
0.361124 0.231282 1.013 184 180 166
0.362232 0.231282 1.013 186 182 168
0.363341 0.231282 1.013 183 179 165
0.36445 0.231282 1.013 183 179 165
0.365559 0.231282 1.013 182 178 164
0.366306 0.231054 1.012 182 178 164
0.36705 0.230825 1.011 181 178 161
0.368157 0.230825 1.011 181 178 161
0.368898 0.230597 1.01 183 180 163
0.369638 0.230369 1.009 180 177 160
0.370375 0.23014 1.008 179 175 156
0.371109 0.229912 1.007 178 174 155
0.371842 0.229684 1.006 179 175 156
0.372573 0.229455 1.005 179 175 156
0.373301 0.229227 1.004 181 174 156
0.374027 0.228999 1.003 181 174 156
0.375125 0.228999 1.003 181 174 156
0.376223 0.228999 1.003 181 174 156
0.376944 0.228771 1.002 179 174 157
0.378041 0.228771 1.002 175 170 153
0.379138 0.228771 1.002 174 169 152
0.379855 0.228542 1.001 172 167 150
0.381331 0.228771 1.002 174 169 152
0.382047 0.228542 1.001 168 163 146
0.383142 0.228542 1.001 167 159 143
0.383854 0.228314 1 170 162 146
0.384564 0.228086 0.999 169 161 145
0.385657 0.228086 0.999 166 158 142
0.386364 0.227857 0.998 167 160 142
0.387456 0.227857 0.998 167 160 142
0.388159 0.227629 0.997 165 158 140
0.38886 0.227401 0.996 164 157 139
0.38995 0.227401 0.996 163 156 138
0.391041 0.227401 0.996 163 156 138
0.392131 0.227401 0.996 159 154 137
0.393221 0.227401 0.996 156 151 134
0.394311 0.227401 0.996 157 151 137
0.395401 0.227401 0.996 160 154 140
0.396492 0.227401 0.996 160 154 140
0.397582 0.227401 0.996 159 153 139
0.398672 0.227401 0.996 157 151 139
0.399762 0.227401 0.996 154 148 136
0.400853 0.227401 0.996 155 149 137
0.401943 0.227401 0.996 157 151 139
0.403033 0.227401 0.996 157 151 139
0.403717 0.227172 0.995 156 150 138
0.404807 0.227172 0.995 155 149 137
0.405488 0.226944 0.994 154 148 136
0.406576 0.226944 0.994 152 146 134
0.407664 0.226944 0.994 152 146 134
0.408341 0.226716 0.993 148 144 130
0.409428 0.226716 0.993 147 143 129
0.410101 0.226487 0.992 147 143 129
0.410772 0.226259 0.991 147 143 129
0.411857 0.226259 0.991 146 142 128
0.412525 0.226031 0.99 146 142 128
0.413609 0.226031 0.99 146 140 126
0.414693 0.226031 0.99 146 140 126
0.415356 0.225802 0.989 147 141 127
0.416439 0.225802 0.989 143 137 123
0.417521 0.225802 0.989 142 136 122
0.419027 0.226031 0.99 143 137 123
0.420111 0.226031 0.99 145 139 125
0.42162 0.226259 0.991 143 137 123
0.422705 0.226259 0.991 139 133 119
0.423789 0.226259 0.991 140 134 120
0.424874 0.226259 0.991 136 132 120
0.426389 0.226487 0.992 133 129 117
0.427475 0.226487 0.992 123 124 111
0.42856 0.226487 0.992 119 120 107
0.429646 0.226487 0.992 113 115 104
0.349028 0.24088 1.05 143 145 139
0.349844 0.24065 1.049 146 148 142
0.350658 0.240421 1.048 163 160 150
0.351134 0.239962 1.046 166 163 153
0.351942 0.239733 1.045 171 165 153
0.35241 0.239274 1.043 178 172 160
0.353213 0.239044 1.042 181 175 163
0.353333 0.238356 1.039 183 177 165
0.353788 0.237897 1.037 184 178 166
0.353896 0.237209 1.034 184 178 166
0.354341 0.23675 1.032 188 182 170
0.354438 0.236062 1.029 186 180 168
0.354873 0.235603 1.027 186 180 168
0.354957 0.234915 1.024 188 182 170
0.355382 0.234456 1.022 186 180 168
0.355803 0.233997 1.02 185 179 167
0.35622 0.233539 1.018 184 178 166
0.356632 0.23308 1.016 188 182 170
0.357392 0.23285 1.015 184 180 168
0.35815 0.232621 1.014 183 179 167
0.358906 0.232392 1.013 183 179 167
0.360015 0.232392 1.013 183 179 167
0.361124 0.232392 1.013 183 179 165
0.362232 0.232392 1.013 186 182 168
0.363341 0.232392 1.013 182 178 164
0.36445 0.232392 1.013 181 177 163
0.365559 0.232392 1.013 177 173 159
0.366668 0.232392 1.013 177 173 159
0.367413 0.232162 1.012 179 176 159
0.368157 0.231933 1.011 181 178 161
0.369264 0.231933 1.011 185 181 162
0.370004 0.231703 1.01 182 178 159
0.370742 0.231474 1.009 177 173 154
0.371478 0.231245 1.008 176 172 153
0.372212 0.231015 1.007 178 171 153
0.372943 0.230786 1.006 178 171 153
0.373301 0.230327 1.004 178 171 153
0.3744 0.230327 1.004 178 171 153
0.375125 0.230097 1.003 177 170 152
0.376223 0.230097 1.003 178 171 153
0.377321 0.230097 1.003 175 170 153
0.378418 0.230097 1.003 174 169 152
0.379516 0.230097 1.003 172 167 150
0.380614 0.230097 1.003 170 165 148
0.381712 0.230097 1.003 171 166 149
0.38281 0.230097 1.003 168 163 146
0.383142 0.229639 1.001 166 158 142
0.384238 0.229639 1.001 166 158 142
0.384949 0.229409 1 163 156 138
0.385657 0.22918 0.999 162 155 137
0.386751 0.22918 0.999 163 156 138
0.387456 0.22895 0.998 164 157 139
0.388548 0.22895 0.998 165 158 140
0.389641 0.22895 0.998 165 158 140
0.390733 0.22895 0.998 162 158 139
0.391826 0.22895 0.998 161 157 138
0.392131 0.228492 0.996 160 155 138
0.393616 0.228721 0.997 156 151 134
0.394311 0.228492 0.996 160 154 140
0.395401 0.228492 0.996 162 156 142
0.396492 0.228492 0.996 160 154 140
0.397582 0.228492 0.996 157 151 137
0.398672 0.228492 0.996 156 150 138
0.399762 0.228492 0.996 155 149 137
0.400853 0.228492 0.996 156 150 138
0.401943 0.228492 0.996 157 151 139
0.403033 0.228492 0.996 156 150 136
0.404123 0.228492 0.996 155 149 135
0.405213 0.228492 0.996 154 148 134
0.405896 0.228262 0.995 152 146 132
0.406576 0.228033 0.994 150 144 130
0.407664 0.228033 0.994 152 146 132
0.408341 0.227803 0.993 152 146 132
0.409428 0.227803 0.993 150 144 130
0.410515 0.227803 0.993 149 143 129
0.410772 0.227345 0.991 149 143 129
0.411857 0.227345 0.991 147 141 127
0.412525 0.227115 0.99 147 141 127
0.413609 0.227115 0.99 146 140 126
0.414693 0.227115 0.99 146 140 126
0.415776 0.227115 0.99 148 142 128
0.41686 0.227115 0.99 146 140 126
0.417944 0.227115 0.99 142 136 122
0.419027 0.227115 0.99 141 135 121
0.420535 0.227345 0.991 141 135 123
0.42162 0.227345 0.991 142 136 124
0.422705 0.227345 0.991 142 136 124
0.423789 0.227345 0.991 140 134 122
0.425303 0.227574 0.992 132 130 118
0.426819 0.227803 0.993 130 128 116
0.427906 0.227803 0.993 126 126 115
0.428992 0.227803 0.993 120 120 109
0.430079 0.227803 0.993 114 116 105
0.348844 0.241108 1.046 144 146 140
0.349989 0.241108 1.046 159 159 148
0.350462 0.240647 1.044 161 161 150
0.350931 0.240186 1.042 167 162 152
0.351734 0.239955 1.041 174 169 159
0.352196 0.239494 1.039 177 172 162
0.352653 0.239033 1.037 180 175 165
0.353105 0.238572 1.035 180 176 164
0.353554 0.238111 1.033 179 175 163
0.353998 0.23765 1.031 183 177 165
0.354093 0.236959 1.028 185 179 167
0.354527 0.236498 1.026 186 180 168
0.354957 0.236037 1.024 188 182 170
0.355382 0.235576 1.022 184 180 168
0.355803 0.235115 1.02 184 180 168
0.35622 0.234654 1.018 184 180 168
0.356632 0.234193 1.016 184 180 168
0.357392 0.233962 1.015 184 180 168
0.358503 0.233962 1.015 183 179 167
0.35926 0.233732 1.014 182 178 166
0.360015 0.233501 1.013 182 178 166
0.36148 0.233732 1.014 182 178 164
0.36259 0.233732 1.014 182 178 164
0.363341 0.233501 1.013 181 177 163
0.36445 0.233501 1.013 180 176 162
0.365559 0.233501 1.013 177 173 159
0.366668 0.233501 1.013 176 172 158
0.367413 0.233271 1.012 176 172 158
0.368521 0.233271 1.012 176 172 158
0.369264 0.23304 1.011 176 171 154
0.370004 0.23281 1.01 174 169 152
0.370742 0.232579 1.009 174 167 149
0.371847 0.232579 1.009 176 169 151
0.372581 0.232349 1.008 174 167 149
0.372943 0.231888 1.006 173 166 148
0.373673 0.231657 1.005 171 164 146
0.3744 0.231427 1.004 172 165 147
0.375499 0.231427 1.004 171 164 146
0.376598 0.231427 1.004 170 163 145
0.377697 0.231427 1.004 169 165 146
0.378418 0.231196 1.003 170 166 147
0.379516 0.231196 1.003 169 164 147
0.380614 0.231196 1.003 169 164 147
0.381712 0.231196 1.003 169 164 147
0.38281 0.231196 1.003 165 160 143
0.383908 0.231196 1.003 164 159 142
0.384622 0.230966 1.002 163 158 141
0.385334 0.230735 1.001 163 156 138
0.386043 0.230505 1 164 157 139
0.387138 0.230505 1 164 157 139
0.387844 0.230274 0.999 164 157 139
0.388938 0.230274 0.999 164 157 139
0.390031 0.230274 0.999 164 157 139
0.390733 0.230044 0.998 160 156 137
0.391826 0.230044 0.998 159 155 136
0.392918 0.230044 0.998 162 157 140
0.394011 0.230044 0.998 159 154 137
0.394707 0.229813 0.997 159 153 139
0.395798 0.229813 0.997 161 155 141
0.39689 0.229813 0.997 162 156 142
0.397981 0.229813 0.997 161 155 141
0.399072 0.229813 0.997 160 154 140
0.400164 0.229813 0.997 157 151 137
0.401255 0.229813 0.997 157 151 137
0.401943 0.229583 0.996 156 150 136
0.403033 0.229583 0.996 156 150 136
0.404123 0.229583 0.996 155 149 135
0.405213 0.229583 0.996 155 149 135
0.405896 0.229352 0.995 154 148 134
0.406576 0.229122 0.994 154 148 134
0.407664 0.229122 0.994 152 146 132
0.408752 0.229122 0.994 150 144 130
0.409428 0.228891 0.993 150 144 130
0.410515 0.228891 0.993 150 144 130
0.411187 0.228661 0.992 148 142 128
0.411857 0.22843 0.991 147 142 125
0.412942 0.22843 0.991 147 142 125
0.414027 0.22843 0.991 148 143 126
0.414693 0.2282 0.99 145 140 123
