ply
format ascii 1.0
comment Created by Open3D
element vertex 1344
property double x
property double y
property double z
property uchar red
property uchar green
property uchar blue
end_header
0.263354 0.26927 0.909 151 162 154
0.264349 0.26927 0.909 151 162 154
0.265052 0.268974 0.908 151 162 154
0.265753 0.268677 0.907 153 160 156
0.266746 0.268677 0.907 154 161 157
0.267444 0.268381 0.906 155 162 158
0.268139 0.268085 0.905 155 162 158
0.26913 0.268085 0.905 157 162 158
0.27012 0.268085 0.905 154 159 155
0.270811 0.267789 0.904 154 158 157
0.271801 0.267789 0.904 155 159 158
0.272489 0.267493 0.903 152 156 155
0.273477 0.267493 0.903 151 155 154
0.274465 0.267493 0.903 150 154 153
0.275149 0.267196 0.902 149 153 152
0.276136 0.267196 0.902 149 154 150
0.277431 0.267493 0.903 151 156 152
0.278419 0.267493 0.903 150 157 153
0.279717 0.267789 0.904 152 159 155
0.280706 0.267789 0.904 149 156 152
0.281696 0.267789 0.904 149 156 152
0.282998 0.268085 0.905 149 156 152
0.284303 0.268381 0.906 148 155 151
0.285294 0.268381 0.906 145 152 148
0.286602 0.268677 0.907 142 149 145
0.287595 0.268677 0.907 147 152 148
0.288906 0.268974 0.908 134 139 135
0.2899 0.268974 0.908 119 125 124
0.291214 0.26927 0.909 113 119 118
0.291887 0.268974 0.908 113 119 118
0.293204 0.26927 0.909 110 116 115
0.294199 0.26927 0.909 107 113 112
0.295194 0.26927 0.909 110 116 115
0.296189 0.26927 0.909 107 113 112
0.297511 0.269566 0.91 106 112 111
0.298507 0.269566 0.91 102 109 105
0.299503 0.269566 0.91 102 109 105
0.300829 0.269862 0.911 104 111 107
0.301826 0.269862 0.911 106 113 109
0.303156 0.270159 0.912 105 112 108
0.304488 0.270455 0.913 105 112 108
0.305487 0.270455 0.913 104 111 107
0.306822 0.270751 0.914 103 110 106
0.30816 0.271047 0.915 104 112 105
0.309499 0.271343 0.916 106 114 107
0.310841 0.27164 0.917 107 115 108
0.312184 0.271936 0.918 109 117 110
0.313872 0.272528 0.92 104 112 105
0.314879 0.272528 0.92 102 110 103
0.316229 0.272825 0.921 103 111 104
0.317582 0.273121 0.922 103 111 104
0.318936 0.273417 0.923 104 112 105
0.319947 0.273417 0.923 103 111 104
0.321305 0.273713 0.924 103 111 104
0.322316 0.273713 0.924 103 111 104
0.323677 0.27401 0.925 103 111 104
0.325041 0.274306 0.926 103 111 104
0.326407 0.274602 0.927 102 111 102
0.327775 0.274898 0.928 96 105 96
0.329145 0.275194 0.929 96 108 98
0.330517 0.275491 0.93 97 109 99
0.331891 0.275787 0.931 97 109 99
0.333268 0.276083 0.932 107 119 109
0.334647 0.276379 0.933 107 112 108
0.335668 0.276379 0.933 85 90 86
0.13229 0.30535 1.027 83 87 86
0.133284 0.305052 1.026 107 111 110
0.134277 0.304755 1.025 115 124 122
0.135266 0.304458 1.024 112 121 119
0.136254 0.30416 1.023 108 119 111
0.13724 0.303863 1.022 109 120 112
0.138223 0.303566 1.021 105 116 108
0.139204 0.303268 1.02 100 111 103
0.140045 0.302674 1.018 102 113 105
0.14116 0.302674 1.018 104 115 107
0.141994 0.302079 1.016 103 114 106
0.142966 0.301782 1.015 105 116 108
0.143935 0.301484 1.014 107 114 110
0.144902 0.301187 1.013 107 114 110
0.14601 0.301187 1.013 106 113 109
0.146829 0.300592 1.011 106 113 109
0.147935 0.300592 1.011 106 113 109
0.148895 0.300295 1.01 109 116 112
0.149852 0.299998 1.009 109 114 110
0.150956 0.299998 1.009 109 114 110
0.15191 0.2997 1.008 111 112 109
0.152861 0.299403 1.007 114 115 112
0.153964 0.299403 1.007 114 115 112
0.154912 0.299106 1.006 114 115 112
0.155858 0.298808 1.005 112 113 110
0.156802 0.298511 1.004 115 116 113
0.157744 0.298214 1.003 112 117 113
0.158842 0.298214 1.003 109 114 110
0.159621 0.297619 1.001 107 112 108
0.160395 0.297025 0.999 108 113 109
0.161327 0.296727 0.998 108 112 111
0.162257 0.29643 0.997 111 115 114
0.16302 0.295835 0.995 115 115 115
0.163944 0.295538 0.994 115 115 115
0.1647 0.294943 0.992 115 115 115
0.165619 0.294646 0.991 115 115 115
0.166536 0.294349 0.99 115 115 115
0.167281 0.293754 0.988 117 117 117
0.168192 0.293457 0.987 112 112 112
0.169101 0.293159 0.986 101 101 101
0.170007 0.292862 0.985 98 102 102
0.170912 0.292565 0.984 113 117 117
0.171639 0.29197 0.982 124 124 125
0.172538 0.291673 0.981 130 130 131
0.173612 0.291673 0.981 148 152 151
0.17433 0.291078 0.979 163 167 166
0.175222 0.290781 0.978 159 168 166
0.175752 0.289889 0.975 154 163 161
0.176457 0.289294 0.973 145 156 154
0.177157 0.2887 0.971 146 157 155
0.177852 0.288105 0.969 144 155 153
0.178544 0.28751 0.967 144 155 153
0.179231 0.286916 0.965 145 156 154
0.179727 0.286024 0.962 149 160 158
0.180404 0.285429 0.96 148 159 157
0.181077 0.284834 0.958 152 163 161
0.181935 0.284537 0.957 146 156 151
0.182792 0.28424 0.956 144 154 149
0.183646 0.283942 0.955 145 155 150
0.184691 0.283942 0.955 148 158 153
0.185736 0.283942 0.955 151 162 154
0.186782 0.283942 0.955 150 161 153
0.187827 0.283942 0.955 150 161 153
0.188872 0.283942 0.955 151 162 154
0.189918 0.283942 0.955 151 162 154
0.190763 0.283645 0.954 150 161 153
0.191807 0.283645 0.954 150 161 153
0.192649 0.283348 0.953 150 161 153
0.193489 0.28305 0.952 152 163 155
0.194123 0.282456 0.95 152 163 155
0.195163 0.282456 0.95 151 162 154
0.195996 0.282158 0.949 151 162 154
0.196619 0.281564 0.947 151 162 154
0.197656 0.281564 0.947 150 161 153
0.198483 0.281266 0.946 150 161 153
0.199307 0.280969 0.945 151 162 154
0.20013 0.280672 0.944 151 161 156
0.20095 0.280374 0.943 148 158 153
0.201768 0.280077 0.942 147 157 152
0.202584 0.27978 0.941 148 158 153
0.203397 0.279483 0.94 149 160 158
0.204209 0.279185 0.939 150 161 159
0.205237 0.279185 0.939 151 162 160
0.206045 0.278888 0.938 152 163 161
0.207072 0.278888 0.938 148 157 155
0.208098 0.278888 0.938 148 157 155
0.208902 0.278591 0.937 152 161 159
0.209928 0.278591 0.937 152 161 159
0.210953 0.278591 0.937 151 160 158
0.211979 0.278591 0.937 151 160 158
0.213232 0.278888 0.938 150 159 157
0.214259 0.278888 0.938 148 157 155
0.215286 0.278888 0.938 151 161 156
0.216312 0.278888 0.938 152 162 157
0.217339 0.278888 0.938 150 160 155
0.218366 0.278888 0.938 151 161 156
0.219392 0.278888 0.938 150 160 155
0.220654 0.279185 0.939 150 160 155
0.221682 0.279185 0.939 148 158 153
0.22271 0.279185 0.939 153 163 158
0.223738 0.279185 0.939 154 165 157
0.224766 0.279185 0.939 150 161 153
0.225793 0.279185 0.939 150 161 153
0.226821 0.279185 0.939 150 161 153
0.227849 0.279185 0.939 146 157 149
0.228877 0.279185 0.939 147 158 150
0.229905 0.279185 0.939 148 159 151
0.230933 0.279185 0.939 152 163 155
0.231713 0.278888 0.938 148 159 151
0.23274 0.278888 0.938 147 158 150
0.233767 0.278888 0.938 148 159 151
0.234794 0.278888 0.938 148 159 151
0.23582 0.278888 0.938 152 160 153
0.236594 0.278591 0.937 153 161 154
0.23762 0.278591 0.937 154 162 155
0.238646 0.278591 0.937 152 160 153
0.239671 0.278591 0.937 150 158 151
0.24044 0.278293 0.936 149 157 150
0.240949 0.277699 0.934 150 158 151
0.241712 0.277401 0.933 153 161 154
0.242213 0.276807 0.931 153 159 158
0.242971 0.276509 0.93 153 159 158
0.243726 0.276212 0.929 153 159 158
0.244216 0.275617 0.927 153 159 158
0.244702 0.275023 0.925 153 159 158
0 0 0 153 159 158
0.24566 0.273833 0.921 152 158 157
0.2464 0.273536 0.92 153 159 158
0.24687 0.272941 0.918 153 160 156
0.247874 0.272941 0.918 153 160 156
0.248608 0.272644 0.917 152 159 155
0.24934 0.272347 0.916 153 160 156
0.250069 0.272049 0.915 152 160 153
0.251071 0.272049 0.915 153 161 154
0.252072 0.272049 0.915 152 160 153
0.253074 0.272049 0.915 153 161 154
0.253798 0.271752 0.914 153 161 154
0.254519 0.271455 0.913 153 161 154
0.255239 0.271158 0.912 154 162 155
0.256237 0.271158 0.912 153 161 154
0.257235 0.271158 0.912 151 162 154
0.257951 0.27086 0.911 151 162 154
0.258663 0.270563 0.91 151 162 154
0.259089 0.269968 0.908 151 162 154
0.260083 0.269968 0.908 152 163 155
0.261077 0.269968 0.908 151 162 154
0.261782 0.269671 0.907 151 162 154
0.262485 0.269374 0.906 151 162 154
0.263186 0.269076 0.905 153 164 156
0.264176 0.269076 0.905 153 164 156
0.265167 0.269076 0.905 152 162 157
0.266158 0.269076 0.905 152 162 157
0.266853 0.268779 0.904 155 162 158
0.267843 0.268779 0.904 156 163 159
0.268535 0.268482 0.903 155 162 158
0.269523 0.268482 0.903 152 159 155
0.270512 0.268482 0.903 154 159 155
0.271199 0.268184 0.902 155 160 156
0.271885 0.267887 0.901 154 159 155
0.272871 0.267887 0.901 151 156 152
0.273857 0.267887 0.901 151 156 152
0.274844 0.267887 0.901 152 157 153
0.27583 0.267887 0.901 152 157 153
0.276816 0.267887 0.901 152 157 153
0.277802 0.267887 0.901 152 159 155
0.279098 0.268184 0.902 148 155 151
0.280396 0.268482 0.903 146 153 149
0.281384 0.268482 0.903 147 154 150
0.282685 0.268779 0.904 145 155 150
0.283675 0.268779 0.904 146 156 151
0.284979 0.269076 0.905 159 163 162
0.28597 0.269076 0.905 144 148 147
0.286961 0.269076 0.905 128 126 126
0.288269 0.269374 0.906 114 112 112
0.289261 0.269374 0.906 117 117 117
0.290573 0.269671 0.907 116 116 116
0.291566 0.269671 0.907 108 112 111
0.292559 0.269671 0.907 108 112 111
0.293552 0.269671 0.907 108 112 111
0.294869 0.269968 0.908 109 113 112
0.295863 0.269968 0.908 108 113 109
0.296857 0.269968 0.908 106 111 107
0.298179 0.270266 0.909 100 107 103
0.299174 0.270266 0.909 100 107 103
0.300169 0.270266 0.909 101 112 104
0.301826 0.27086 0.911 103 114 106
0.303156 0.271158 0.912 103 114 106
0.304488 0.271455 0.913 103 114 106
0.305822 0.271752 0.914 103 114 106
0.307158 0.272049 0.915 102 113 105
0.308496 0.272347 0.916 100 111 103
0.309837 0.272644 0.917 102 113 105
0.31118 0.272941 0.918 105 116 108
0.312524 0.273239 0.919 105 116 108
0.313872 0.273536 0.92 104 115 107
0.315221 0.273833 0.921 103 114 106
0.316229 0.273833 0.921 104 115 107
0.317926 0.274428 0.923 103 114 106
0.318936 0.274428 0.923 102 113 105
0.319947 0.274428 0.923 101 112 104
0.321305 0.274725 0.924 100 111 103
0.322665 0.275023 0.925 98 109 101
0.323677 0.275023 0.925 96 107 99
0.325041 0.27532 0.926 96 107 99
0.326055 0.27532 0.926 97 109 99
0.327421 0.275617 0.927 95 107 97
0.32879 0.275915 0.928 94 106 96
0.330162 0.276212 0.929 104 116 106
0.331535 0.276509 0.93 115 121 114
0.33291 0.276807 0.931 94 100 93
0.135266 0.305579 1.024 90 94 93
0.136121 0.304982 1.022 99 106 102
0.13724 0.304982 1.022 107 114 110
0.138087 0.304386 1.02 106 114 107
0.139068 0.304087 1.019 103 111 104
0.140045 0.303789 1.018 103 111 104
0.141021 0.30349 1.017 103 111 104
0.141994 0.303192 1.016 105 113 106
0.142966 0.302893 1.015 107 115 108
0.144077 0.302893 1.015 107 114 110
0.144902 0.302297 1.013 106 113 109
0.145866 0.301998 1.012 105 112 108
0.146829 0.3017 1.011 106 113 109
0.147935 0.3017 1.011 109 116 112
0.148747 0.301103 1.009 109 116 112
0.149852 0.301103 1.009 111 116 112
0.150807 0.300805 1.008 109 114 110
0.15191 0.300805 1.008 111 112 109
0.152861 0.300506 1.007 112 113 110
0.153811 0.300208 1.006 115 117 111
0.154912 0.300208 1.006 115 117 111
0.155703 0.299611 1.004 111 117 110
0.156802 0.299611 1.004 111 117 110
0.157744 0.299313 1.003 109 115 108
0.158683 0.299014 1.002 107 113 106
0.159621 0.298716 1.001 106 111 107
0.160395 0.298119 0.999 107 112 108
0.161327 0.29782 0.998 108 113 109
0.162094 0.297224 0.996 109 114 110
0.162856 0.296627 0.994 114 115 112
0.16378 0.296328 0.993 114 115 112
0.164534 0.295731 0.991 114 114 114
0.165452 0.295433 0.99 114 114 114
0.166367 0.295135 0.989 115 115 115
0.167111 0.294538 0.987 115 115 115
0.168192 0.294538 0.987 112 112 112
0.168929 0.293941 0.985 111 111 111
0.169835 0.293643 0.984 110 110 110
0.170738 0.293344 0.983 111 111 111
0.171639 0.293046 0.982 112 112 112
0.172538 0.292747 0.981 107 107 107
0.173258 0.29215 0.979 110 111 108
0.174152 0.291852 0.978 124 125 122
0.175043 0.291554 0.977 126 133 129
0.175752 0.290957 0.975 161 168 164
0.176275 0.290062 0.972 138 150 145
0.176974 0.289465 0.97 145 157 152
0.177669 0.288868 0.968 148 160 155
0.178175 0.287973 0.965 144 156 151
0.178859 0.287376 0.963 145 156 154
0.17954 0.286779 0.961 149 160 158
0.180216 0.286182 0.959 148 159 157
0.180888 0.285585 0.957 140 151 149
0.181935 0.285585 0.957 144 154 149
0.182792 0.285287 0.956 145 155 150
0.183646 0.284988 0.955 146 156 151
0.184691 0.284988 0.955 147 157 152
0.185736 0.284988 0.955 150 160 155
0.186782 0.284988 0.955 150 160 155
0.18763 0.28469 0.954 151 162 154
0.188675 0.28469 0.954 150 161 153
0.189719 0.28469 0.954 148 159 151
0.190563 0.284392 0.953 152 163 155
0.191606 0.284392 0.953 150 161 153
0.192245 0.283795 0.951 148 159 151
0.193083 0.283496 0.95 148 158 153
0.193918 0.283198 0.949 148 158 153
0.194752 0.2829 0.948 148 158 153
0.195376 0.282303 0.946 148 158 153
0.196204 0.282004 0.945 148 158 153
0.19703 0.281706 0.944 147 157 152
0.197853 0.281407 0.943 146 156 151
0.198886 0.281407 0.943 147 157 152
0.199494 0.280811 0.941 148 158 153
0.200311 0.280512 0.94 150 160 155
0.201125 0.280214 0.939 148 158 153
0.202153 0.280214 0.939 150 160 155
0.202965 0.279915 0.938 151 160 158
0.203774 0.279617 0.937 151 160 158
0.2048 0.279617 0.937 151 160 158
0.205606 0.279319 0.936 150 159 157
0.206409 0.27902 0.935 150 159 157
0.207433 0.27902 0.935 152 161 159
0.208456 0.27902 0.935 152 161 159
0.20948 0.27902 0.935 153 162 160
0.210503 0.27902 0.935 153 163 158
0.211527 0.27902 0.935 152 162 157
0.212777 0.279319 0.936 148 158 153
0.21403 0.279617 0.937 147 157 152
0.214827 0.279319 0.936 150 160 155
0.215851 0.279319 0.936 152 162 157
0.217107 0.279617 0.937 150 161 153
0.218133 0.279617 0.937 150 161 153
0.219159 0.279617 0.937 150 161 153
0.220184 0.279617 0.937 148 159 151
0.22121 0.279617 0.937 148 159 151
0.222236 0.279617 0.937 151 162 154
0.223261 0.279617 0.937 153 164 156
0.224287 0.279617 0.937 150 161 153
0.225312 0.279617 0.937 150 161 153
0.226338 0.279617 0.937 150 161 153
0.227364 0.279617 0.937 148 159 151
0.228389 0.279617 0.937 148 159 151
0.229415 0.279617 0.937 150 161 153
0.230441 0.279617 0.937 150 161 153
0.231466 0.279617 0.937 148 159 151
0.232492 0.279617 0.937 150 161 153
0.233518 0.279617 0.937 150 161 153
0.234543 0.279617 0.937 150 161 153
0.235569 0.279617 0.937 151 162 154
0.236594 0.279617 0.937 152 163 155
0.23762 0.279617 0.937 152 162 157
0.238646 0.279617 0.937 152 162 157
0.239416 0.279319 0.936 152 159 155
0.239926 0.278722 0.934 149 156 152
0.240691 0.278423 0.933 150 157 153
0.240935 0.277528 0.93 152 159 155
0.241432 0.276931 0.928 153 159 158
0.241926 0.276334 0.926 154 160 159
0.242677 0.276036 0.925 152 161 159
0.243163 0.275439 0.923 154 163 161
0.243379 0.274544 0.92 152 161 159
0.243855 0.273947 0.918 151 160 158
0.244593 0.273649 0.917 150 159 157
0.245329 0.27335 0.916 150 159 157
0.246332 0.27335 0.916 150 159 157
0.247064 0.273052 0.915 150 159 157
0.247795 0.272753 0.914 150 160 155
0.248523 0.272455 0.913 150 160 155
0.249796 0.272753 0.914 148 158 153
0.250522 0.272455 0.913 150 160 155
0.251521 0.272455 0.913 151 161 156
0.252244 0.272157 0.912 151 161 156
0.253242 0.272157 0.912 151 161 156
0.253962 0.271858 0.911 150 160 155
0.254959 0.271858 0.911 150 161 153
0.255675 0.27156 0.91 146 157 149
0.256389 0.271261 0.909 145 156 148
0.257101 0.270963 0.908 146 157 149
0.257811 0.270664 0.907 148 159 151
0.258518 0.270366 0.906 151 162 154
0.25951 0.270366 0.906 152 163 155
0.260214 0.270068 0.905 150 161 153
0.260916 0.269769 0.904 148 159 151
0.261906 0.269769 0.904 150 161 153
0.262895 0.269769 0.904 153 164 156
0.263593 0.269471 0.903 154 165 157
0.264581 0.269471 0.903 155 163 156
0.26557 0.269471 0.903 154 162 155
0.266558 0.269471 0.903 154 161 157
0.26725 0.269172 0.902 155 162 158
0.268237 0.269172 0.902 154 161 157
0.268926 0.268874 0.901 152 159 155
0.269913 0.268874 0.901 152 157 153
0.270899 0.268874 0.901 155 160 156
0.271583 0.268575 0.9 154 159 155
0.272568 0.268575 0.9 151 156 152
0.273553 0.268575 0.9 150 155 151
0.274234 0.268277 0.899 150 155 151
0.275218 0.268277 0.899 151 156 152
0.276509 0.268575 0.9 152 157 153
0.277494 0.268575 0.9 149 156 152
0.278479 0.268575 0.9 146 153 149
0.279775 0.268874 0.901 143 153 148
0.281073 0.269172 0.902 144 154 149
0.28206 0.269172 0.902 145 155 150
0.283361 0.269471 0.903 152 162 157
0.284664 0.269769 0.904 132 132 132
0.285654 0.269769 0.904 111 111 111
0.286961 0.270068 0.905 119 117 117
0.287951 0.270068 0.905 120 118 118
0.288942 0.270068 0.905 117 115 115
0.290253 0.270366 0.906 113 111 111
0.291245 0.270366 0.906 108 108 108
0.292236 0.270366 0.906 109 109 109
0.293228 0.270366 0.906 107 111 110
0.29422 0.270366 0.906 107 111 110
0.295537 0.270664 0.907 107 112 108
0.29653 0.270664 0.907 107 112 108
0.297851 0.270963 0.908 102 110 103
0.298845 0.270963 0.908 100 108 101
0.300169 0.271261 0.909 102 110 103
0.301495 0.27156 0.91 102 110 103
0.303156 0.272157 0.912 101 112 104
0.304488 0.272455 0.913 102 113 105
0.305822 0.272753 0.914 102 113 105
0.307158 0.273052 0.915 101 112 104
0.308496 0.27335 0.916 100 111 103
0.309837 0.273649 0.917 101 112 104
0.31118 0.273947 0.918 104 115 107
0.312524 0.274245 0.919 105 116 108
0.313872 0.274544 0.92 104 115 107
0.315221 0.274842 0.921 103 114 106
0.316572 0.275141 0.922 103 114 106
0.317926 0.275439 0.923 103 114 106
0.318936 0.275439 0.923 102 113 105
0.319947 0.275439 0.923 100 111 103
0.321305 0.275738 0.924 97 108 100
0.322316 0.275738 0.924 95 106 98
0.323677 0.276036 0.925 93 104 96
0.32469 0.276036 0.925 93 104 96
0.326055 0.276334 0.926 94 106 96
0.327068 0.276334 0.926 100 112 102
0.328436 0.276633 0.927 106 114 107
0.329806 0.276931 0.928 85 93 86
0.331178 0.27723 0.929 72 73 70
0.137105 0.305802 1.021 85 84 81
0.138087 0.305503 1.02 99 105 98
0.139068 0.305203 1.019 106 112 105
0.140045 0.304904 1.018 116 123 114
0.141021 0.304604 1.017 108 115 106
0.141994 0.304305 1.016 107 116 107
0.142966 0.304005 1.015 110 119 110
0.143935 0.303706 1.014 109 117 110
0.144902 0.303406 1.013 107 115 108
0.14601 0.303406 1.013 105 113 106
0.146829 0.302807 1.011 106 114 107
0.147935 0.302807 1.011 109 117 110
0.148747 0.302208 1.009 107 115 108
0.149852 0.302208 1.009 109 115 108
0.150807 0.301909 1.008 109 115 108
0.15191 0.301909 1.008 107 113 106
0.152861 0.301609 1.007 109 115 108
0.153811 0.30131 1.006 112 118 111
0.154912 0.30131 1.006 113 119 112
0.155703 0.300711 1.004 112 119 110
0.156802 0.300711 1.004 109 116 107
0.157744 0.300411 1.003 109 116 107
0.158525 0.299812 1.001 108 115 106
0.159621 0.299812 1.001 108 114 107
0.160395 0.299213 0.999 108 114 107
0.161327 0.298914 0.998 108 114 107
0.162094 0.298315 0.996 108 114 107
0.162856 0.297716 0.994 111 112 109
0.16378 0.297416 0.993 116 117 114
0.164534 0.296817 0.991 116 117 114
0.165452 0.296517 0.99 114 115 112
0.166199 0.295918 0.988 112 113 110
0.167111 0.295619 0.987 112 113 110
0.167851 0.29502 0.985 111 112 109
0.168758 0.29472 0.984 111 112 109
0.169662 0.294421 0.983 112 113 110
0.170564 0.294121 0.982 115 116 113
0.171465 0.293822 0.981 116 117 114
0.172363 0.293522 0.98 116 117 114
0.173258 0.293223 0.979 111 112 109
0.174152 0.292923 0.978 117 118 115
0.174864 0.292324 0.976 115 121 114
0.175572 0.291725 0.974 122 128 121
0.176275 0.291126 0.972 115 126 118
0.176974 0.290527 0.97 142 153 145
0.177669 0.289928 0.968 153 165 160
0.178175 0.28903 0.965 148 160 155
0.178859 0.288431 0.963 143 154 152
0.17954 0.287832 0.961 142 153 151
0.180216 0.287233 0.959 146 155 153
0.180888 0.286634 0.957 145 154 152
0.181935 0.286634 0.957 146 156 151
0.182792 0.286334 0.956 148 158 153
0.183646 0.286035 0.955 151 161 156
0.184691 0.286035 0.955 150 160 155
0.185736 0.286035 0.955 151 162 154
0.186782 0.286035 0.955 150 161 153
0.18763 0.285735 0.954 148 159 151
0.188675 0.285735 0.954 148 159 151
0.18952 0.285436 0.953 150 161 153
0.190363 0.285136 0.952 152 163 155
0.191204 0.284837 0.951 152 162 157
0.192043 0.284537 0.95 150 160 155
0.19288 0.284237 0.949 147 157 152
0.19351 0.283638 0.947 151 161 156
0.194341 0.283339 0.946 148 158 153
0.194963 0.28274 0.944 148 158 153
0.195789 0.28244 0.943 147 157 152
0.196821 0.28244 0.943 146 156 151
0.197434 0.281841 0.941 145 155 150
0.198253 0.281542 0.94 147 157 152
0.19907 0.281242 0.939 149 156 152
0.199885 0.280943 0.938 150 157 153
0.200911 0.280943 0.938 150 157 153
0.201723 0.280643 0.937 153 160 156
0.202316 0.280044 0.935 151 160 158
0.203339 0.280044 0.935 150 159 157
0.204144 0.279745 0.934 150 159 157
0.205166 0.279745 0.934 150 159 157
0.205968 0.279445 0.933 152 161 159
0.206989 0.279445 0.933 152 161 159
0.20801 0.279445 0.933 152 161 159
0.209032 0.279445 0.933 153 162 160
0.210053 0.279445 0.933 153 163 158
0.211074 0.279445 0.933 152 162 157
0.212095 0.279445 0.933 148 158 153
0.213345 0.279745 0.934 147 157 152
0.214367 0.279745 0.934 148 159 151
0.21539 0.279745 0.934 147 158 150
0.216644 0.280044 0.935 147 158 150
0.217667 0.280044 0.935 148 159 151
0.218691 0.280044 0.935 146 157 149
0.219714 0.280044 0.935 146 157 149
0.220738 0.280044 0.935 146 157 149
0.221761 0.280044 0.935 147 158 150
0.222785 0.280044 0.935 151 162 154
0.223569 0.279745 0.934 150 161 153
0.224591 0.279745 0.934 151 162 154
0.225855 0.280044 0.935 152 163 155
0.226878 0.280044 0.935 150 161 153
0.227902 0.280044 0.935 148 159 151
0.228925 0.280044 0.935 151 162 154
0.229949 0.280044 0.935 151 162 154
0.230972 0.280044 0.935 148 159 151
0.231996 0.280044 0.935 151 162 154
0.233268 0.280344 0.936 153 163 158
0.234543 0.280643 0.937 154 164 159
0.235317 0.280344 0.936 151 163 158
0.236342 0.280344 0.936 150 162 157
0.237367 0.280344 0.936 150 160 155
0.238136 0.280044 0.935 150 160 155
0.238904 0.279745 0.934 153 163 158
0.23967 0.279445 0.933 148 158 153
0.240175 0.278846 0.931 148 158 153
0.240417 0.277948 0.928 150 160 155
0.240652 0.277049 0.925 150 159 157
0.241403 0.27675 0.924 151 160 158
0.241628 0.275851 0.921 151 160 158
0.242109 0.275252 0.919 151 160 158
0.242586 0.274653 0.917 151 160 158
0.243058 0.274054 0.915 151 160 158
0.24406 0.274054 0.915 150 159 157
0.244793 0.273755 0.914 148 157 155
0.245525 0.273455 0.913 150 160 155
0.246254 0.273155 0.912 151 161 156
0.246982 0.272856 0.911 150 160 155
0.247979 0.272856 0.911 150 160 155
0.248976 0.272856 0.911 148 158 153
0.249973 0.272856 0.911 150 160 155
0.25097 0.272856 0.911 150 160 155
0.251691 0.272556 0.91 150 160 155
0.252409 0.272257 0.909 148 158 153
0.253404 0.272257 0.909 147 157 152
0.254119 0.271957 0.908 150 160 155
0.254832 0.271658 0.907 153 163 158
0.255825 0.271658 0.907 153 164 156
0.256535 0.271358 0.906 151 162 154
0.257242 0.271059 0.905 148 158 153
0.257947 0.270759 0.904 151 161 156
0.258937 0.270759 0.904 151 161 156
0.259639 0.27046 0.903 150 160 155
0.260627 0.27046 0.903 148 158 153
0.261616 0.27046 0.903 150 160 155
0.262313 0.27016 0.902 151 161 156
0.263301 0.27016 0.902 152 162 157
0.264288 0.27016 0.902 152 162 157
0.264981 0.269861 0.901 152 162 157
0.265968 0.269861 0.901 151 161 156
0.266954 0.269861 0.901 152 162 157
0.26794 0.269861 0.901 154 161 157
0.268628 0.269561 0.9 152 159 155
0.269613 0.269561 0.9 150 157 153
0.270598 0.269561 0.9 152 159 155
0.271281 0.269262 0.899 152 159 155
0.271963 0.268962 0.898 152 159 155
0.272946 0.268962 0.898 148 153 149
0.273929 0.268962 0.898 147 152 148
0.274911 0.268962 0.898 146 153 149
0.275894 0.268962 0.898 147 154 150
0.277186 0.269262 0.899 145 155 150
0.27817 0.269262 0.899 142 152 147
0.279464 0.269561 0.9 140 152 147
0.280449 0.269561 0.9 137 149 144
0.281747 0.269861 0.901 132 138 137
0.283047 0.27016 0.902 112 118 117
0.28435 0.27046 0.903 102 102 102
0.285338 0.27046 0.903 114 114 114
0.286644 0.270759 0.904 119 117 117
0.287633 0.270759 0.904 118 116 116
0.288942 0.271059 0.905 113 111 111
0.289932 0.271059 0.905 111 109 109
0.290923 0.271059 0.905 108 108 108
0.291914 0.271059 0.905 109 109 109
0.292904 0.271059 0.905 110 110 110
0.293895 0.271059 0.905 109 109 109
0.295211 0.271358 0.906 106 111 107
0.29653 0.271658 0.907 108 113 109
0.297523 0.271658 0.907 107 112 108
0.298845 0.271957 0.908 104 109 105
0.300169 0.272257 0.909 100 108 101
0.301495 0.272556 0.91 99 107 100
0.302824 0.272856 0.911 98 109 101
0.304488 0.273455 0.913 98 109 101
0.305822 0.273755 0.914 100 111 103
0.307158 0.274054 0.915 101 112 104
0.308496 0.274354 0.916 101 113 103
0.309837 0.274653 0.917 100 112 102
0.31118 0.274953 0.918 102 114 104
0.312865 0.275552 0.92 103 115 105
0.314213 0.275851 0.921 103 115 105
0.315221 0.275851 0.921 102 114 104
0.316572 0.276151 0.922 101 112 104
0.317926 0.27645 0.923 102 113 105
0.318936 0.27645 0.923 101 112 104
0.319947 0.27645 0.923 97 108 100
0.321305 0.27675 0.924 95 106 98
0.322316 0.27675 0.924 91 102 94
0.323328 0.27675 0.924 89 100 92
0.32469 0.277049 0.925 90 101 93
0.325702 0.277049 0.925 93 101 94
0.327068 0.277349 0.926 109 117 110
0.328082 0.277349 0.926 76 77 74
0.139204 0.30662 1.02 77 76 68
0.140045 0.306019 1.018 95 96 88
0.14116 0.306019 1.018 111 112 104
0.141994 0.305418 1.016 112 119 110
0.142966 0.305117 1.015 109 116 107
0.143935 0.304816 1.014 118 125 116
0.144902 0.304516 1.013 109 116 107
0.14601 0.304516 1.013 109 115 108
0.146974 0.304215 1.012 109 115 108
0.147935 0.303915 1.011 111 117 110
0.148895 0.303614 1.01 109 115 108
0.149852 0.303313 1.009 108 114 107
0.150807 0.303013 1.008 109 115 108
0.15191 0.303013 1.008 107 113 106
0.15271 0.302412 1.006 106 112 105
0.153811 0.302412 1.006 109 115 108
0.154758 0.302111 1.005 112 118 111
0.155703 0.30181 1.004 112 118 111
0.156646 0.30151 1.003 109 115 108
0.157586 0.301209 1.002 109 115 108
0.158525 0.300909 1.001 111 117 110
0.159302 0.300307 0.999 111 117 110
0.160235 0.300007 0.998 109 115 108
0.161165 0.299706 0.997 108 114 107
0.161931 0.299105 0.995 108 114 107
0.162856 0.298804 0.994 107 113 106
0.16345 0.297902 0.991 112 118 111
0.164368 0.297602 0.99 116 118 112
0.165285 0.297301 0.989 112 114 108
0.166031 0.2967 0.987 111 113 107
0.166942 0.296399 0.986 111 113 107
0.167851 0.296099 0.985 111 113 107
0.168758 0.295798 0.984 111 113 107
0.16949 0.295197 0.982 112 114 108
0.170391 0.294896 0.981 114 116 110
0.17129 0.294596 0.98 115 117 111
0.172187 0.294295 0.979 115 117 111
0.173081 0.293995 0.978 115 117 111
0.173974 0.293694 0.977 115 117 111
0.174864 0.293393 0.976 113 119 112
0.175572 0.292792 0.974 111 117 110
0.176275 0.292191 0.972 109 117 110
0.176792 0.291289 0.969 109 117 110
0.177669 0.290989 0.968 117 124 120
0.178359 0.290387 0.966 134 141 137
0.178859 0.289485 0.963 137 143 142
0.179727 0.289185 0.962 150 156 155
0.180216 0.288283 0.959 155 161 160
0.181077 0.287982 0.958 146 152 151
0.181935 0.287682 0.957 160 167 163
0.182983 0.287682 0.957 157 164 160
0.183838 0.287381 0.956 154 162 155
0.184691 0.287081 0.955 154 162 155
0.185736 0.287081 0.955 153 161 154
0.186586 0.28678 0.954 147 155 148
0.18763 0.28678 0.954 147 155 148
0.188477 0.286479 0.953 149 157 150
0.189321 0.286179 0.952 148 158 153
0.190163 0.285878 0.951 150 160 155
0.191003 0.285578 0.95 150 160 155
0.191639 0.284976 0.948 150 160 155
0.192473 0.284676 0.947 147 157 152
0.193101 0.284075 0.945 151 161 156
0.19393 0.283774 0.944 151 160 158
0.194757 0.283473 0.943 150 159 157
0.195581 0.283173 0.942 147 156 154
0.196195 0.282571 0.94 146 155 153
0.197224 0.282571 0.94 149 156 152
0.198042 0.282271 0.939 150 157 153
0.198858 0.28197 0.938 150 157 153
0.199671 0.28167 0.937 150 157 153
0.200483 0.281369 0.936 152 159 155
0.201292 0.281068 0.935 152 159 155
0.202099 0.280768 0.934 153 159 158
0.202904 0.280467 0.933 153 159 158
0.203925 0.280467 0.933 151 160 158
0.204947 0.280467 0.933 150 159 157
0.205747 0.280167 0.932 151 160 158
0.206545 0.279866 0.931 153 162 160
0.207565 0.279866 0.931 153 162 160
0.208584 0.279866 0.931 152 161 159
0.209603 0.279866 0.931 152 161 159
0.210622 0.279866 0.931 150 159 157
0.211641 0.279866 0.931 148 158 153
0.21266 0.279866 0.931 148 158 153
0.213908 0.280167 0.932 151 161 156
0.214929 0.280167 0.932 146 156 151
0.215949 0.280167 0.932 146 157 149
0.216969 0.280167 0.932 146 157 149
0.217989 0.280167 0.932 147 158 150
0.219009 0.280167 0.932 147 158 150
0.220029 0.280167 0.932 148 159 151
0.22105 0.280167 0.932 148 159 151
0.22207 0.280167 0.932 150 161 153
0.22309 0.280167 0.932 150 161 153
0.22411 0.280167 0.932 151 162 154
0.22513 0.280167 0.932 152 163 155
0.22615 0.280167 0.932 151 162 154
0.227171 0.280167 0.932 151 162 154
0.228191 0.280167 0.932 152 163 155
0.229457 0.280467 0.933 148 159 151
0.230725 0.280768 0.934 148 159 151
0.231748 0.280768 0.934 151 162 154
0.23277 0.280768 0.934 151 163 158
0.234043 0.281068 0.935 152 164 159
0.235066 0.281068 0.935 152 164 159
0.236089 0.281068 0.935 151 163 158
0.236859 0.280768 0.934 149 161 156
0.237882 0.280768 0.934 148 160 155
0.238648 0.280467 0.933 151 163 158
0.239156 0.279866 0.931 146 158 153
0.239401 0.278964 0.928 148 158 153
0.239639 0.278062 0.925 150 160 155
0 0 0 150 160 155
0.240358 0.276559 0.92 150 160 155
0.240841 0.275958 0.918 150 159 157
0.241318 0.275357 0.916 151 160 158
0.241792 0.274756 0.914 152 161 159
0.242527 0.274455 0.913 150 159 157
0.24326 0.274154 0.912 150 159 157
0.24399 0.273854 0.911 148 157 155
0.244987 0.273854 0.911 148 158 153
0.245714 0.273553 0.91 150 160 155
0.24671 0.273553 0.91 150 160 155
0.247434 0.273253 0.909 151 161 156
0.248429 0.273253 0.909 150 160 155
0.249424 0.273253 0.909 150 160 155
0.250419 0.273253 0.909 148 158 153
0.251138 0.272952 0.908 148 158 153
0.252132 0.272952 0.908 147 157 152
0.252847 0.272651 0.907 146 156 151
0.25356 0.272351 0.906 147 157 152
0.25427 0.27205 0.905 151 161 156
0.254979 0.27175 0.904 151 161 156
0.255968 0.27175 0.904 151 161 156
0.256674 0.271449 0.903 150 160 155
0.257377 0.271148 0.902 151 161 156
0.258364 0.271148 0.902 150 160 155
0.259351 0.271148 0.902 150 160 155
0.26005 0.270848 0.901 148 158 153
0.261036 0.270848 0.901 151 161 156
0.262023 0.270848 0.901 151 161 156
0.262717 0.270547 0.9 151 161 156
0.263702 0.270547 0.9 150 160 155
0.264687 0.270547 0.9 151 161 156
0.265672 0.270547 0.9 151 161 156
0.266658 0.270547 0.9 150 160 155
0.267643 0.270547 0.9 150 160 155
0.268628 0.270547 0.9 151 161 156
0.269313 0.270247 0.899 152 159 155
0.270297 0.270247 0.899 150 157 153
0.271281 0.270247 0.899 152 159 155
0.271963 0.269946 0.898 154 161 157
0.272946 0.269946 0.898 154 159 155
0.273929 0.269946 0.898 148 153 149
0.274911 0.269946 0.898 144 151 147
0.275894 0.269946 0.898 150 157 153
0.276877 0.269946 0.898 150 157 153
0.27786 0.269946 0.898 141 148 144
0.279154 0.270247 0.899 142 152 147
0.280449 0.270547 0.9 105 115 110
0.281435 0.270547 0.9 109 116 112
0.282734 0.270848 0.901 105 112 108
0.284035 0.271148 0.902 109 114 110
0.285022 0.271148 0.902 109 114 110
0.286326 0.271449 0.903 115 116 113
0.287633 0.27175 0.904 114 115 112
0.288623 0.27175 0.904 111 112 109
0.289612 0.27175 0.904 109 110 107
0.290923 0.27205 0.905 107 108 105
0.291914 0.27205 0.905 108 109 106
0.292904 0.27205 0.905 109 110 107
0.293895 0.27205 0.905 109 110 107
0.295211 0.272351 0.906 105 110 106
0.296203 0.272351 0.906 105 110 106
0.297523 0.272651 0.907 107 112 108
0.298845 0.272952 0.908 104 109 105
0.300169 0.273253 0.909 99 107 100
0.301495 0.273553 0.91 99 107 100
0.302824 0.273854 0.911 98 109 101
0.304488 0.274455 0.913 97 108 100
0.305822 0.274756 0.914 101 112 104
0.307158 0.275056 0.915 103 114 106
0.308496 0.275357 0.916 100 113 105
0.309837 0.275658 0.917 94 107 99
0.311519 0.276259 0.919 95 108 100
0.312865 0.276559 0.92 99 112 104
0.313872 0.276559 0.92 100 113 105
0.315221 0.27686 0.921 100 113 105
0.316572 0.277161 0.922 101 112 104
0.317926 0.277461 0.923 100 111 103
0.318936 0.277461 0.923 98 109 101
0.319947 0.277461 0.923 97 108 100
0.320957 0.277461 0.923 97 107 102
0.322316 0.277762 0.924 96 106 101
0.323328 0.277762 0.924 94 99 95
0.324339 0.277762 0.924 98 103 99
0.32535 0.277762 0.924 99 98 95
0.141994 0.306531 1.016 105 105 94
0.142966 0.306229 1.015 108 108 97
0.144077 0.306229 1.015 108 111 103
0.144902 0.305625 1.013 115 118 110
0.14601 0.305625 1.013 115 121 114
0.146829 0.305022 1.011 105 111 104
0.147935 0.305022 1.011 109 115 108
0.148747 0.304419 1.009 109 115 108
0.149852 0.304419 1.009 106 112 105
0.150807 0.304117 1.008 109 115 108
0.151759 0.303815 1.007 107 113 106
0.15271 0.303514 1.006 106 112 105
0.153658 0.303212 1.005 108 114 107
0.154604 0.30291 1.004 109 115 108
0.155548 0.302608 1.003 111 117 110
0.15649 0.302307 1.002 109 115 108
0.157429 0.302005 1.001 108 114 107
0.158208 0.301402 0.999 111 117 110
0.159142 0.3011 0.998 112 118 111
0.160074 0.300798 0.997 109 115 108
0.160842 0.300195 0.995 109 115 108
0.161768 0.299893 0.994 109 115 108
0.162693 0.299591 0.993 109 115 108
0.16345 0.298988 0.991 111 117 110
0.164368 0.298686 0.99 109 115 108
0.165118 0.298083 0.988 107 113 106
0.166031 0.297781 0.987 110 112 106
0.166773 0.297178 0.985 110 112 106
0.167681 0.296876 0.984 111 113 107
0.168415 0.296273 0.982 112 114 108
0.169317 0.295971 0.981 112 114 108
0.170217 0.295669 0.98 114 116 110
0.171115 0.295368 0.979 114 116 110
0.172011 0.295066 0.978 115 117 111
0.172904 0.294764 0.977 115 117 111
0.173796 0.294462 0.976 114 116 110
0.174685 0.294161 0.975 115 117 111
0.175392 0.293557 0.973 116 118 112
0.176275 0.293256 0.972 114 120 113
0.176792 0.292351 0.969 112 118 111
0.177669 0.292049 0.968 106 113 109
0.178359 0.291445 0.966 119 126 122
0.179045 0.290842 0.964 112 118 117
0.179727 0.290239 0.962 116 122 121
0.180592 0.289937 0.961 135 141 140
0.181266 0.289333 0.959 134 140 139
0.182125 0.289032 0.958 150 156 149
0.183174 0.289032 0.958 149 155 148
0.18403 0.28873 0.957 159 167 160
0.184884 0.288428 0.956 160 168 161
0.185736 0.288127 0.955 155 163 156
0.186782 0.288127 0.955 147 155 148
0.18763 0.287825 0.954 147 155 148
0.188477 0.287523 0.953 149 157 150
0.189122 0.28692 0.951 149 157 150
0.189963 0.286618 0.95 149 157 150
0.190802 0.286316 0.949 150 157 153
0.191437 0.285713 0.947 150 157 153
0.19227 0.285411 0.946 147 156 154
0.192897 0.284808 0.944 151 160 158
0.193725 0.284506 0.943 151 160 158
0.194344 0.283903 0.941 150 159 157
0.195374 0.283903 0.941 150 159 157
0.195986 0.283299 0.939 148 157 155
0.196804 0.282998 0.938 149 156 152
0.197831 0.282998 0.938 152 159 155
0.198646 0.282696 0.937 153 160 156
0.199458 0.282394 0.936 153 160 156
0.200269 0.282093 0.935 152 159 155
0.201077 0.281791 0.934 150 157 153
0.201883 0.281489 0.933 152 158 157
0.202687 0.281188 0.932 153 159 158
0.203707 0.281188 0.932 153 159 158
0.204507 0.280886 0.931 152 158 157
0.205306 0.280584 0.93 150 159 157
0.206102 0.280282 0.929 153 162 160
0.207119 0.280282 0.929 154 163 161
0.208136 0.280282 0.929 152 161 159
0.209152 0.280282 0.929 150 159 157
0.210169 0.280282 0.929 150 159 157
0.211186 0.280282 0.929 153 163 158
0.212203 0.280282 0.929 152 162 157
0.21322 0.280282 0.929 152 163 155
0.214237 0.280282 0.929 148 159 151
0.215254 0.280282 0.929 148 159 151
0.216271 0.280282 0.929 147 158 150
0.217287 0.280282 0.929 146 157 149
0.218304 0.280282 0.929 147 158 150
0.219321 0.280282 0.929 147 158 150
0.220338 0.280282 0.929 150 161 153
0.221355 0.280282 0.929 148 159 151
0.222372 0.280282 0.929 151 162 154
0.223389 0.280282 0.929 151 162 154
0.224647 0.280584 0.93 150 161 153
0.225665 0.280584 0.93 151 162 154
0.226683 0.280584 0.93 153 164 156
0.227946 0.280886 0.931 154 165 157
0.228965 0.280886 0.931 148 159 151
0.230231 0.281188 0.932 148 159 151
0.231499 0.281489 0.933 151 162 154
0.232521 0.281489 0.933 151 163 158
0.233792 0.281791 0.934 151 163 158
0.234815 0.281791 0.934 151 163 158
0.235837 0.281791 0.934 150 162 157
0.236606 0.281489 0.933 150 162 157
0.237372 0.281188 0.932 151 163 158
0.238137 0.280886 0.931 150 162 157
0.238385 0.279981 0.928 148 160 155
0.238885 0.279377 0.926 146 158 153
0.239121 0.278472 0.923 148 160 155
0 0 0 149 161 156
0.239574 0.276662 0.917 149 161 156
0.240053 0.276059 0.915 151 163 158
0.240792 0.275757 0.914 151 163 158
0.241263 0.275153 0.912 151 162 160
0.241996 0.274852 0.911 149 160 158
0.242726 0.27455 0.91 149 160 158
0.243454 0.274248 0.909 146 157 155
0.244449 0.274248 0.909 146 158 153
0.245444 0.274248 0.909 146 158 153
0.246168 0.273947 0.908 146 158 153
0.247162 0.273947 0.908 148 160 155
0.247883 0.273645 0.907 150 160 155
0.248875 0.273645 0.907 150 160 155
0.249868 0.273645 0.907 148 158 153
0.250584 0.273343 0.906 148 158 153
0.251299 0.273042 0.905 148 158 153
0.252289 0.273042 0.905 148 158 153
0.253 0.27274 0.904 152 162 157
0.253708 0.272438 0.903 151 161 156
0.254697 0.272438 0.903 151 161 156
0.255402 0.272136 0.902 153 163 158
0.256105 0.271835 0.901 151 161 156
0.256806 0.271533 0.9 150 160 155
0.257791 0.271533 0.9 150 160 155
0.258776 0.271533 0.9 150 160 155
0.259473 0.271231 0.899 148 158 153
0.260457 0.271231 0.899 152 162 157
0.261441 0.271231 0.899 152 162 157
0.262425 0.271231 0.899 150 160 155
0.263409 0.271231 0.899 150 160 155
0.264393 0.271231 0.899 148 158 153
0.265377 0.271231 0.899 148 158 153
0.266361 0.271231 0.899 148 158 153
0.267345 0.271231 0.899 148 158 153
0.268329 0.271231 0.899 151 161 156
0.269313 0.271231 0.899 150 160 155
0.270297 0.271231 0.899 150 160 155
0.27098 0.27093 0.898 152 159 155
0.271963 0.27093 0.898 152 159 155
0.272642 0.270628 0.897 157 162 158
0.273623 0.270628 0.897 157 162 158
0.274605 0.270628 0.897 147 153 146
0.275587 0.270628 0.897 151 157 150
0.276569 0.270628 0.897 132 137 133
0.27786 0.27093 0.898 130 135 131
0.278843 0.27093 0.898 110 117 113
0.280138 0.271231 0.899 102 109 105
0.281435 0.271533 0.9 107 115 108
0.28242 0.271533 0.9 106 114 107
0.28372 0.271835 0.901 106 114 107
0.285022 0.272136 0.902 107 115 108
0.286326 0.272438 0.903 109 115 108
0.287633 0.27274 0.904 108 114 107
0.288623 0.27274 0.904 108 114 107
0.289612 0.27274 0.904 108 114 107
0.290602 0.27274 0.904 106 112 105
0.291914 0.273042 0.905 105 111 104
0.292904 0.273042 0.905 106 112 105
0.293895 0.273042 0.905 106 112 105
0.294885 0.273042 0.905 104 109 105
0.296203 0.273343 0.906 104 109 105
0.297523 0.273645 0.907 103 111 104
0.298845 0.273947 0.908 102 110 103
0.300169 0.274248 0.909 98 106 99
0.301495 0.27455 0.91 99 107 100
0.302824 0.274852 0.911 98 110 100
0.304488 0.275455 0.913 100 112 102
0.305822 0.275757 0.914 102 114 104
0.307158 0.276059 0.915 103 115 105
0.308496 0.27636 0.916 100 113 105
0.309837 0.276662 0.917 95 108 100
0.31118 0.276964 0.918 95 108 100
0.312524 0.277265 0.919 96 109 101
0.313872 0.277567 0.92 98 110 105
0.315221 0.277869 0.921 99 111 106
0.316572 0.27817 0.922 102 112 107
0.317926 0.278472 0.923 98 108 103
0.318936 0.278472 0.923 96 106 101
0.319947 0.278472 0.923 100 110 105
0.320957 0.278472 0.923 113 117 117
0.321967 0.278472 0.923 88 92 92
0.322978 0.278472 0.923 93 91 92
0.144902 0.306735 1.013 107 103 96
0.145866 0.306432 1.012 101 103 97
0.146829 0.306129 1.011 108 110 104
0.147789 0.305827 1.01 113 118 114
0.148747 0.305524 1.009 111 116 112
0.149852 0.305524 1.009 99 104 100
0.150807 0.305221 1.008 108 113 109
0.151759 0.304918 1.007 107 113 106
0.15271 0.304615 1.006 107 113 106
0.153505 0.30401 1.004 108 114 107
0.15445 0.303707 1.003 107 113 106
0.155238 0.303102 1.001 108 114 107
0.156333 0.303102 1.001 109 115 108
0.157115 0.302496 0.999 108 114 107
0.15805 0.302193 0.998 108 114 107
0.158983 0.30189 0.997 111 117 110
0.159753 0.301285 0.995 111 117 110
0.16068 0.300982 0.994 109 115 108
0.161606 0.300679 0.993 108 114 107
0.162365 0.300074 0.991 109 115 108
0.163285 0.299771 0.99 111 117 110
0.164036 0.299165 0.988 109 115 108
0.164951 0.298862 0.987 106 112 105
0.165695 0.298257 0.985 109 111 105
0.166604 0.297954 0.984 110 112 106
0.16751 0.297651 0.983 111 113 107
0.168243 0.297046 0.981 112 114 108
0.169144 0.296743 0.98 112 114 108
0.170043 0.29644 0.979 114 116 110
0.17094 0.296137 0.978 115 117 111
0.172011 0.296137 0.978 114 116 110
0.172727 0.295532 0.976 114 116 110
0.173796 0.295532 0.976 114 116 110
0.174685 0.295229 0.975 114 116 110
0.175392 0.294623 0.973 114 116 110
0.176094 0.294018 0.971 115 117 111
0.176792 0.293412 0.969 116 118 112
0.177669 0.293109 0.968 114 120 113
0.178359 0.292504 0.966 113 119 112
0.179231 0.292201 0.965 106 111 107
0.179914 0.291595 0.963 111 116 112
0.180592 0.29099 0.961 114 119 115
0.181455 0.290687 0.96 113 118 114
0.182315 0.290384 0.959 117 119 113
0.183174 0.290081 0.958 131 133 127
0.184223 0.290081 0.958 156 164 157
0.185078 0.289778 0.957 149 157 150
0.186125 0.289778 0.957 146 154 147
0.186782 0.289173 0.955 147 155 148
0.18763 0.28887 0.954 149 157 150
0.188477 0.288567 0.953 149 157 150
0.189122 0.287962 0.951 148 155 151
0.189963 0.287659 0.95 149 156 152
0.190601 0.287053 0.948 150 157 153
0.191234 0.286448 0.946 150 157 153
0.192067 0.286145 0.945 149 155 154
0.192692 0.285539 0.943 148 154 153
0.193519 0.285236 0.942 149 155 154
0.194344 0.284934 0.941 150 156 155
0.195166 0.284631 0.94 150 156 155
0.195986 0.284328 0.939 150 156 155
0.196804 0.284025 0.938 152 158 157
0.19762 0.283722 0.937 153 159 158
0.198646 0.283722 0.937 155 162 158
0.199245 0.283117 0.935 154 161 157
0.200054 0.282814 0.934 152 159 155
0.200862 0.282511 0.933 149 156 152
0.201666 0.282208 0.932 148 155 151
0.202469 0.281906 0.931 150 157 153
0.203488 0.281906 0.931 151 160 158
0.204068 0.2813 0.929 152 161 159
0.205085 0.2813 0.929 151 160 158
0.20588 0.280997 0.928 151 160 158
0.206673 0.280694 0.927 152 161 159
0.207687 0.280694 0.927 153 162 160
0.208702 0.280694 0.927 152 161 159
0.209717 0.280694 0.927 152 161 159
0.210731 0.280694 0.927 154 164 159
0.211518 0.280392 0.926 155 165 160
0.212761 0.280694 0.927 155 166 158
0.213545 0.280392 0.926 148 159 151
0.214559 0.280392 0.926 150 162 152
0.215805 0.280694 0.927 150 162 152
0.21682 0.280694 0.927 150 162 152
0.217834 0.280694 0.927 148 160 150
0.218849 0.280694 0.927 152 163 155
0.219864 0.280694 0.927 150 161 153
0.220878 0.280694 0.927 150 161 153
0.221893 0.280694 0.927 151 162 154
0.223148 0.280997 0.928 151 162 154
0.224164 0.280997 0.928 150 161 153
0.22518 0.280997 0.928 150 160 155
0.226439 0.2813 0.929 151 161 156
0.227456 0.2813 0.929 152 162 157
0.228965 0.281906 0.931 148 158 153
0.229984 0.281906 0.931 150 160 155
0.231251 0.282208 0.932 150 160 155
0.232271 0.282208 0.932 148 160 155
0.233542 0.282511 0.933 149 161 156
0.234563 0.282511 0.933 149 161 156
0.235584 0.282511 0.933 149 161 156
0.236352 0.282208 0.932 150 162 157
0.237118 0.281906 0.931 150 162 157
0.237369 0.280997 0.928 149 161 156
0.237871 0.280392 0.926 148 160 155
0.238369 0.279786 0.924 148 160 155
0.238344 0.278575 0.92 149 161 156
0.238571 0.277666 0.917 150 161 159
0.238791 0.276758 0.914 149 160 158
0.239529 0.276455 0.913 150 161 159
0.240001 0.27585 0.911 151 162 160
0.240469 0.275244 0.909 149 160 158
0.241464 0.275244 0.909 148 159 157
0.242193 0.274941 0.908 148 159 157
0.243186 0.274941 0.908 149 160 158
0.243911 0.274638 0.907 148 160 155
0.244904 0.274638 0.907 146 158 153
0.245897 0.274638 0.907 146 158 153
0.246618 0.274336 0.906 145 157 152
0.247609 0.274336 0.906 150 160 155
0.248601 0.274336 0.906 151 161 156
0.249317 0.274033 0.905 150 160 155
0.250308 0.274033 0.905 150 160 155
0.251021 0.27373 0.904 150 160 155
0.251732 0.273427 0.903 150 160 155
0.25272 0.273427 0.903 152 162 157
0.253427 0.273124 0.902 151 161 156
0.254133 0.272822 0.901 147 157 152
0.255119 0.272822 0.901 151 161 156
0.255821 0.272519 0.9 150 160 155
0.256521 0.272216 0.899 148 158 153
0.257218 0.271913 0.898 152 162 157
0.258201 0.271913 0.898 151 161 156
0.259184 0.271913 0.898 148 158 153
0.260167 0.271913 0.898 151 161 156
0.26115 0.271913 0.898 152 162 157
0.262133 0.271913 0.898 151 161 156
0.263116 0.271913 0.898 148 158 153
0.264099 0.271913 0.898 148 158 153
0.265082 0.271913 0.898 147 157 152
0.266065 0.271913 0.898 150 160 155
0.267048 0.271913 0.898 151 161 156
0.268031 0.271913 0.898 151 161 156
0.269014 0.271913 0.898 148 158 153
0.269997 0.271913 0.898 147 157 152
0.27098 0.271913 0.898 150 155 151
0.27166 0.27161 0.897 150 155 151
0.272642 0.27161 0.897 155 156 153
0.273623 0.27161 0.897 144 145 142
0.274605 0.27161 0.897 133 134 131
0.275587 0.27161 0.897 117 118 115
0.276569 0.27161 0.897 112 113 110
0.277551 0.27161 0.897 121 122 119
0.278843 0.271913 0.898 106 112 105
0.280138 0.272216 0.899 107 113 106
0.281122 0.272216 0.899 106 112 105
0.28242 0.272519 0.9 106 112 105
0.28372 0.272822 0.901 107 113 106
0.285022 0.273124 0.902 109 115 108
0.286326 0.273427 0.903 111 117 110
0.287315 0.273427 0.903 108 114 107
0.288623 0.27373 0.904 108 114 107
0.289612 0.27373 0.904 108 114 107
0.290602 0.27373 0.904 107 113 106
0.291914 0.274033 0.905 107 113 106
0.292904 0.274033 0.905 107 113 106
0.293895 0.274033 0.905 107 113 106
0.294885 0.274033 0.905 106 111 107
0.29653 0.274638 0.907 105 110 106
0.297523 0.274638 0.907 104 112 105
0.298845 0.274941 0.908 102 110 103
0.300169 0.275244 0.909 98 106 99
0.301826 0.27585 0.911 99 107 100
0.303156 0.276152 0.912 100 108 101
0.304488 0.276455 0.913 103 111 104
0.305822 0.276758 0.914 102 113 105
0.307158 0.277061 0.915 102 113 105
0.308496 0.277364 0.916 101 112 104
0.309837 0.277666 0.917 100 111 103
0.31118 0.277969 0.918 96 109 101
0.312524 0.278272 0.919 95 108 100
0.313872 0.278575 0.92 96 109 101
0.315221 0.278878 0.921 98 111 103
0.316229 0.278878 0.921 99 111 106
0.317582 0.27918 0.922 98 110 105
0.318591 0.27918 0.922 106 112 111
0.319947 0.279483 0.923 110 116 115
0.320609 0.27918 0.922 88 84 85
0.145866 0.307541 1.012 55 56 53
0.146829 0.307237 1.011 90 91 88
0.147789 0.306933 1.01 119 124 120
0.148747 0.306629 1.009 121 126 122
0.149703 0.306325 1.008 101 106 102
0.150807 0.306325 1.008 107 112 108
0.151609 0.305717 1.006 106 112 105
0.152558 0.305414 1.005 107 113 106
0.153505 0.30511 1.004 106 112 105
0.154296 0.304502 1.002 106 112 105
0.155238 0.304198 1.001 107 113 106
0.156021 0.30359 0.999 108 114 107
0.156957 0.303286 0.998 108 114 107
0.15805 0.303286 0.998 107 113 106
0.158823 0.302678 0.996 107 113 106
0.159592 0.302071 0.994 108 114 107
0.160519 0.301767 0.993 108 114 107
0.161443 0.301463 0.992 107 113 106
0.162365 0.301159 0.991 106 112 105
0.16312 0.300551 0.989 106 112 105
0.164036 0.300247 0.988 108 114 107
0.164951 0.299943 0.987 107 113 106
0.165695 0.299336 0.985 112 114 108
0.166434 0.298728 0.983 112 114 108
0.16734 0.298424 0.982 112 115 107
0.168243 0.29812 0.981 111 114 106
0.168972 0.297512 0.979 112 115 107
0.16987 0.297208 0.978 112 115 107
0.17094 0.297208 0.978 114 117 109
0.171659 0.296601 0.976 114 117 109
0.172727 0.296601 0.976 112 115 107
0.173618 0.296297 0.975 112 115 107
0.174506 0.295993 0.974 112 115 107
0.175211 0.295385 0.972 112 115 107
0.175912 0.294777 0.97 115 118 110
0.176792 0.294473 0.969 115 118 110
0.177669 0.294169 0.968 112 118 111
0.178359 0.293562 0.966 111 117 110
0.179231 0.293258 0.965 109 115 108
0.179914 0.29265 0.963 107 113 106
0.18078 0.292346 0.962 114 120 113
0.181644 0.292042 0.961 116 122 115
0.182506 0.291738 0.96 114 116 110
0.183365 0.291434 0.959 110 112 106
0.184415 0.291434 0.959 104 112 105
0.185271 0.291131 0.958 116 124 117
0.186125 0.290827 0.957 144 151 147
0.186977 0.290523 0.956 148 155 151
0.187827 0.290219 0.955 153 163 158
0.188477 0.289611 0.953 151 161 156
0.189122 0.289003 0.951 147 156 154
0.189963 0.288699 0.95 147 156 154
0.190601 0.288092 0.948 148 157 156
0.191234 0.287484 0.946 147 156 155
0.191863 0.286876 0.944 147 156 155
0.192692 0.286572 0.943 147 156 155
0.193519 0.286268 0.942 147 156 155
0.194137 0.28566 0.94 147 156 155
0.195166 0.28566 0.94 148 157 155
0.195986 0.285357 0.939 150 159 157
0.196804 0.285053 0.938 151 160 158
0.19762 0.284749 0.937 151 160 158
0.198646 0.284749 0.937 152 162 157
0.199245 0.284141 0.935 152 162 157
0.200054 0.283837 0.934 150 160 155
0.200862 0.283533 0.933 147 157 152
0.201666 0.283229 0.932 147 157 152
0.202469 0.282925 0.931 147 157 152
0.20327 0.282622 0.93 151 161 156
0.204068 0.282318 0.929 152 162 157
0.204864 0.282014 0.928 151 161 156
0.205658 0.28171 0.927 150 160 155
0.20645 0.281406 0.926 151 161 156
0.207463 0.281406 0.926 152 162 157
0.208252 0.281102 0.925 153 163 158
0.209264 0.281102 0.925 152 162 157
0.210277 0.281102 0.925 152 162 157
0.211061 0.280798 0.924 151 161 156
0.212302 0.281102 0.925 148 159 151
0.213084 0.280798 0.924 148 159 151
0.214095 0.280798 0.924 148 159 151
0.215107 0.280798 0.924 150 161 153
