ply
format ascii 1.0
element vertex 681
property float x
property float y
property float z
end_header
0.16499999999999998 0.0075 0.03
0.16499999999999998 0.0075 0.0375
0.16499999999999998 0.015 0.03
0.1725 0.0 0.03
0.1725 0.0 0.0375
0.1725 0.0 0.045
0.1725 0.0 0.052500000000000005
0.1725 0.0 0.14250000000000002
0.1725 0.0075 0.03
0.1725 0.0075 0.0375
0.1725 0.0075 0.045
0.1725 0.015 0.03
0.1725 0.015 0.0375
0.18 0.0 0.03
0.18 0.0 0.045
0.18 0.0 0.052500000000000005
0.18 0.0 0.09
0.18 0.0 0.1575
0.18 0.0075 0.0225
0.18 0.0075 0.0375
0.18 0.0075 0.045
0.18 0.0075 0.052500000000000005
0.18 0.015 0.0225
0.18 0.015 0.03
0.18 0.015 0.0375
0.18 0.015 0.045
0.18 0.0225 0.0225
0.18 0.0225 0.03
0.18 0.0225 0.0375
0.18 0.03 0.0225
0.18 0.03 0.03
0.18 0.03 0.06749999999999999
0.1875 0.0 0.0225
0.1875 0.0 0.06
0.1875 0.0 0.075
0.1875 0.0 0.08249999999999999
0.1875 0.0 0.1125
0.1875 0.0 0.1575
0.1875 0.0075 0.0225
0.1875 0.0075 0.03
0.1875 0.0075 0.0375
0.1875 0.0075 0.045
0.1875 0.0075 0.052500000000000005
0.1875 0.0075 0.06
0.1875 0.0075 0.075
0.1875 0.0075 0.08249999999999999
0.1875 0.0075 0.09
0.1875 0.0075 0.0975
0.1875 0.0075 0.10500000000000001
0.1875 0.03 0.075
0.1875 0.03 0.08249999999999999
0.1875 0.03 0.09
0.1875 0.0375 0.0225
0.1875 0.0375 0.03
0.195 0.0 0.052500000000000005
0.195 0.0 0.08249999999999999
0.195 0.0 0.0975
0.195 0.0 0.10500000000000001
0.195 0.0 0.1125
0.195 0.0 0.12
0.195 0.0 0.13499999999999998
0.195 0.0 0.15
0.195 0.0 0.1575
0.195 0.0075 0.10500000000000001
0.195 0.0075 0.1275
0.195 0.015 0.015
0.195 0.015 0.0375
0.195 0.015 0.052500000000000005
0.195 0.015 0.075
0.195 0.015 0.09
0.195 0.015 0.0975
0.195 0.015 0.10500000000000001
0.195 0.015 0.12
0.195 0.015 0.14250000000000002
0.195 0.015 0.15
0.195 0.0225 0.0225
0.195 0.0225 0.03
0.195 0.0225 0.0375
0.195 0.0225 0.052500000000000005
0.195 0.0225 0.06
0.195 0.0225 0.075
0.195 0.0225 0.09
0.195 0.0225 0.10500000000000001
0.195 0.0225 0.13499999999999998
0.195 0.03 0.015
0.195 0.0375 0.0375
0.195 0.0375 0.052500000000000005
0.195 0.045 0.0225
0.20249999999999999 0.0 0.03
0.20249999999999999 0.0 0.0375
0.20249999999999999 0.0 0.045
0.20249999999999999 0.0 0.1725
0.20249999999999999 0.0 0.18
0.20249999999999999 0.0 0.1875
0.20249999999999999 0.0075 0.0225
0.20249999999999999 0.0075 0.03
0.20249999999999999 0.0075 0.0375
0.20249999999999999 0.0075 0.045
0.20249999999999999 0.0075 0.052500000000000005
0.20249999999999999 0.0075 0.06
0.20249999999999999 0.0075 0.075
0.20249999999999999 0.0075 0.09
0.20249999999999999 0.0075 0.10500000000000001
0.20249999999999999 0.0075 0.12
0.20249999999999999 0.0075 0.13499999999999998
0.20249999999999999 0.0075 0.1575
0.20249999999999999 0.0075 0.1725
0.20249999999999999 0.015 0.0225
0.20249999999999999 0.015 0.03
0.20249999999999999 0.015 0.0375
0.20249999999999999 0.015 0.045
0.20249999999999999 0.015 0.052500000000000005
0.20249999999999999 0.015 0.06
0.20249999999999999 0.015 0.06749999999999999
0.20249999999999999 0.015 0.075
0.20249999999999999 0.015 0.08249999999999999
0.20249999999999999 0.015 0.09
0.20249999999999999 0.015 0.0975
0.20249999999999999 0.015 0.10500000000000001
0.20249999999999999 0.015 0.1125
0.20249999999999999 0.015 0.12
0.20249999999999999 0.015 0.1275
0.20249999999999999 0.015 0.14250000000000002
0.20249999999999999 0.015 0.15
0.20249999999999999 0.0225 0.015
0.20249999999999999 0.0225 0.03
0.20249999999999999 0.0225 0.0375
0.20249999999999999 0.0225 0.045
0.20249999999999999 0.0225 0.052500000000000005
0.20249999999999999 0.0225 0.075
0.20249999999999999 0.0225 0.08249999999999999
0.20249999999999999 0.0225 0.09
0.20249999999999999 0.03 0.0225
0.20249999999999999 0.03 0.03
0.20249999999999999 0.03 0.0375
0.20249999999999999 0.03 0.0975
0.20249999999999999 0.0375 0.045
0.20249999999999999 0.0375 0.052500000000000005
0.20249999999999999 0.0375 0.06
0.20249999999999999 0.0375 0.075
0.20249999999999999 0.0375 0.09
0.20249999999999999 0.045 0.0375
0.20249999999999999 0.045 0.045
0.20249999999999999 0.045 0.06
0.20249999999999999 0.045 0.06749999999999999
0.20249999999999999 0.045 0.075
0.20249999999999999 0.045 0.08249999999999999
0.20249999999999999 0.052500000000000005 0.03
0.20249999999999999 0.052500000000000005 0.045
0.21000000000000002 0.0 0.052500000000000005
0.21000000000000002 0.0 0.06749999999999999
0.21000000000000002 0.0 0.075
0.21000000000000002 0.0 0.09
0.21000000000000002 0.0 0.0975
0.21000000000000002 0.0 0.10500000000000001
0.21000000000000002 0.0 0.1125
0.21000000000000002 0.0 0.12
0.21000000000000002 0.0 0.1275
0.21000000000000002 0.0 0.13499999999999998
0.21000000000000002 0.0 0.14250000000000002
0.21000000000000002 0.0 0.15
0.21000000000000002 0.0 0.16499999999999998
0.21000000000000002 0.0 0.1725
0.21000000000000002 0.0 0.18
0.21000000000000002 0.0 0.1875
0.21000000000000002 0.0 0.195
0.21000000000000002 0.0 0.20249999999999999
0.21000000000000002 0.0075 0.015
0.21000000000000002 0.0075 0.0225
0.21000000000000002 0.0075 0.0375
0.21000000000000002 0.0075 0.045
0.21000000000000002 0.0075 0.052500000000000005
0.21000000000000002 0.0075 0.06
0.21000000000000002 0.0075 0.06749999999999999
0.21000000000000002 0.0075 0.075
0.21000000000000002 0.0075 0.08249999999999999
0.21000000000000002 0.0075 0.09
0.21000000000000002 0.0075 0.0975
0.21000000000000002 0.0075 0.10500000000000001
0.21000000000000002 0.0075 0.1125
0.21000000000000002 0.0075 0.12
0.21000000000000002 0.0075 0.14250000000000002
0.21000000000000002 0.0075 0.15
0.21000000000000002 0.0075 0.16499999999999998
0.21000000000000002 0.0075 0.1725
0.21000000000000002 0.0075 0.18
0.21000000000000002 0.0075 0.1875
0.21000000000000002 0.015 0.015
0.21000000000000002 0.015 0.0225
0.21000000000000002 0.015 0.03
0.21000000000000002 0.015 0.0375
0.21000000000000002 0.015 0.045
0.21000000000000002 0.015 0.052500000000000005
0.21000000000000002 0.015 0.06
0.21000000000000002 0.015 0.06749999999999999
0.21000000000000002 0.015 0.075
0.21000000000000002 0.015 0.08249999999999999
0.21000000000000002 0.015 0.09
0.21000000000000002 0.015 0.0975
0.21000000000000002 0.015 0.10500000000000001
0.21000000000000002 0.015 0.1125
0.21000000000000002 0.015 0.1275
0.21000000000000002 0.015 0.13499999999999998
0.21000000000000002 0.015 0.14250000000000002
0.21000000000000002 0.015 0.15
0.21000000000000002 0.015 0.1575
0.21000000000000002 0.015 0.16499999999999998
0.21000000000000002 0.015 0.1725
0.21000000000000002 0.0225 0.0225
0.21000000000000002 0.0225 0.03
0.21000000000000002 0.0225 0.0375
0.21000000000000002 0.0225 0.045
0.21000000000000002 0.0225 0.075
0.21000000000000002 0.0225 0.08249999999999999
0.21000000000000002 0.0225 0.09
0.21000000000000002 0.0225 0.0975
0.21000000000000002 0.0225 0.10500000000000001
0.21000000000000002 0.0225 0.1125
0.21000000000000002 0.0225 0.12
0.21000000000000002 0.0225 0.1275
0.21000000000000002 0.0225 0.13499999999999998
0.21000000000000002 0.0225 0.14250000000000002
0.21000000000000002 0.0225 0.15
0.21000000000000002 0.03 0.0375
0.21000000000000002 0.03 0.045
0.21000000000000002 0.03 0.052500000000000005
0.21000000000000002 0.03 0.06
0.21000000000000002 0.03 0.06749999999999999
0.21000000000000002 0.03 0.075
0.21000000000000002 0.03 0.08249999999999999
0.21000000000000002 0.03 0.09
0.21000000000000002 0.03 0.0975
0.21000000000000002 0.03 0.10500000000000001
0.21000000000000002 0.03 0.1125
0.21000000000000002 0.03 0.12
0.21000000000000002 0.03 0.1275
0.21000000000000002 0.0375 0.0375
0.21000000000000002 0.0375 0.045
0.21000000000000002 0.0375 0.052500000000000005
0.21000000000000002 0.0375 0.06
0.21000000000000002 0.0375 0.09
0.21000000000000002 0.0375 0.0975
0.21000000000000002 0.0375 0.10500000000000001
0.21000000000000002 0.0375 0.1125
0.21000000000000002 0.045 0.03
0.21000000000000002 0.045 0.0375
0.21000000000000002 0.045 0.045
0.21000000000000002 0.045 0.052500000000000005
0.21000000000000002 0.045 0.06
0.21000000000000002 0.045 0.06749999999999999
0.21000000000000002 0.045 0.075
0.21000000000000002 0.045 0.08249999999999999
0.21000000000000002 0.045 0.09
0.21000000000000002 0.045 0.10500000000000001
0.21000000000000002 0.052500000000000005 0.0225
0.21000000000000002 0.052500000000000005 0.03
0.21000000000000002 0.052500000000000005 0.0375
0.21000000000000002 0.052500000000000005 0.045
0.21000000000000002 0.052500000000000005 0.052500000000000005
0.21000000000000002 0.052500000000000005 0.06
0.21000000000000002 0.052500000000000005 0.06749999999999999
0.21000000000000002 0.052500000000000005 0.075
0.21000000000000002 0.052500000000000005 0.08249999999999999
0.21000000000000002 0.052500000000000005 0.09
0.21000000000000002 0.06 0.03
0.21000000000000002 0.06 0.045
0.21000000000000002 0.06 0.052500000000000005
0.21749999999999997 0.0 0.0225
0.21749999999999997 0.0 0.03
0.21749999999999997 0.0 0.0375
0.21749999999999997 0.0 0.045
0.21749999999999997 0.0 0.052500000000000005
0.21749999999999997 0.0 0.06
0.21749999999999997 0.0 0.075
0.21749999999999997 0.0 0.08249999999999999
0.21749999999999997 0.0 0.09
0.21749999999999997 0.0 0.10500000000000001
0.21749999999999997 0.0 0.1125
0.21749999999999997 0.0 0.12
0.21749999999999997 0.0 0.1275
0.21749999999999997 0.0 0.13499999999999998
0.21749999999999997 0.0 0.15
0.21749999999999997 0.0 0.1575
0.21749999999999997 0.0 0.16499999999999998
0.21749999999999997 0.0 0.18
0.21749999999999997 0.0 0.1875
0.21749999999999997 0.0 0.195
0.21749999999999997 0.0 0.20249999999999999
0.21749999999999997 0.0 0.21000000000000002
0.21749999999999997 0.0 0.21749999999999997
0.21749999999999997 0.0 0.23249999999999998
0.21749999999999997 0.0 0.24
0.21749999999999997 0.0075 0.015
0.21749999999999997 0.0075 0.0225
0.21749999999999997 0.0075 0.03
0.21749999999999997 0.0075 0.0375
0.21749999999999997 0.0075 0.045
0.21749999999999997 0.0075 0.052500000000000005
0.21749999999999997 0.0075 0.06
0.21749999999999997 0.0075 0.06749999999999999
0.21749999999999997 0.0075 0.075
0.21749999999999997 0.0075 0.08249999999999999
0.21749999999999997 0.0075 0.09
0.21749999999999997 0.0075 0.0975
0.21749999999999997 0.0075 0.10500000000000001
0.21749999999999997 0.0075 0.1125
0.21749999999999997 0.0075 0.12
0.21749999999999997 0.0075 0.1275
0.21749999999999997 0.0075 0.13499999999999998
0.21749999999999997 0.0075 0.14250000000000002
0.21749999999999997 0.0075 0.15
0.21749999999999997 0.0075 0.1575
0.21749999999999997 0.0075 0.16499999999999998
0.21749999999999997 0.0075 0.1725
0.21749999999999997 0.0075 0.18
0.21749999999999997 0.0075 0.1875
0.21749999999999997 0.0075 0.195
0.21749999999999997 0.0075 0.20249999999999999
0.21749999999999997 0.015 0.015
0.21749999999999997 0.015 0.0225
0.21749999999999997 0.015 0.03
0.21749999999999997 0.015 0.0375
0.21749999999999997 0.015 0.045
0.21749999999999997 0.015 0.052500000000000005
0.21749999999999997 0.015 0.06749999999999999
0.21749999999999997 0.0225 0.075
0.21749999999999997 0.0225 0.12
0.21749999999999997 0.0225 0.1275
0.21749999999999997 0.0225 0.13499999999999998
0.21749999999999997 0.0225 0.14250000000000002
0.21749999999999997 0.0225 0.15
0.21749999999999997 0.03 0.09
0.21749999999999997 0.03 0.10500000000000001
0.21749999999999997 0.03 0.12
0.21749999999999997 0.03 0.1275
0.21749999999999997 0.0375 0.06749999999999999
0.21749999999999997 0.0375 0.0975
0.21749999999999997 0.0375 0.12
0.21749999999999997 0.045 0.06749999999999999
0.21749999999999997 0.045 0.075
0.21749999999999997 0.045 0.08249999999999999
0.21749999999999997 0.045 0.09
0.21749999999999997 0.045 0.0975
0.21749999999999997 0.045 0.10500000000000001
0.21749999999999997 0.052500000000000005 0.03
0.21749999999999997 0.052500000000000005 0.0375
0.21749999999999997 0.052500000000000005 0.045
0.21749999999999997 0.052500000000000005 0.052500000000000005
0.21749999999999997 0.052500000000000005 0.06
0.21749999999999997 0.052500000000000005 0.06749999999999999
0.21749999999999997 0.052500000000000005 0.08249999999999999
0.21749999999999997 0.052500000000000005 0.09
0.21749999999999997 0.052500000000000005 0.0975
0.21749999999999997 0.052500000000000005 0.10500000000000001
0.21749999999999997 0.06 0.0225
0.21749999999999997 0.06 0.0375
0.21749999999999997 0.06 0.045
0.21749999999999997 0.06 0.052500000000000005
0.21749999999999997 0.06 0.06
0.21749999999999997 0.06 0.06749999999999999
0.21749999999999997 0.06749999999999999 0.0225
0.21749999999999997 0.06749999999999999 0.03
0.21749999999999997 0.06749999999999999 0.0375
0.225 0.0 0.0225
0.225 0.0 0.03
0.225 0.0 0.0375
0.225 0.0 0.045
0.225 0.0 0.052500000000000005
0.225 0.0 0.06749999999999999
0.225 0.0 0.08249999999999999
0.225 0.0 0.09
0.225 0.0 0.10500000000000001
0.225 0.0 0.1125
0.225 0.0 0.12
0.225 0.0 0.15
0.225 0.0 0.1575
0.225 0.0 0.16499999999999998
0.225 0.0 0.1875
0.225 0.0 0.195
0.225 0.0 0.21000000000000002
0.225 0.0 0.225
0.225 0.0075 0.0225
0.225 0.0075 0.03
0.225 0.0075 0.045
0.225 0.0075 0.052500000000000005
0.225 0.0075 0.06
0.225 0.0075 0.08249999999999999
0.225 0.0075 0.18
0.225 0.0075 0.20249999999999999
0.225 0.015 0.015
0.225 0.015 0.06
0.225 0.015 0.0975
0.225 0.015 0.10500000000000001
0.225 0.015 0.15
0.225 0.015 0.18
0.225 0.015 0.1875
0.225 0.015 0.225
0.225 0.0225 0.16499999999999998
0.225 0.045 0.0975
0.225 0.045 0.10500000000000001
0.225 0.045 0.1125
0.225 0.052500000000000005 0.09
0.225 0.052500000000000005 0.0975
0.225 0.052500000000000005 0.1125
0.225 0.06 0.03
0.225 0.06 0.0375
0.225 0.06 0.08249999999999999
0.225 0.06 0.09
0.225 0.06 0.10500000000000001
0.225 0.06749999999999999 0.0225
0.225 0.06749999999999999 0.03
0.225 0.06749999999999999 0.0375
0.225 0.06749999999999999 0.08249999999999999
0.225 0.075 0.0225
0.225 0.075 0.03
0.23249999999999998 0.0 0.03
0.23249999999999998 0.0 0.045
0.23249999999999998 0.0 0.052500000000000005
0.23249999999999998 0.0 0.06749999999999999
0.23249999999999998 0.0 0.075
0.23249999999999998 0.0 0.08249999999999999
0.23249999999999998 0.0 0.09
0.23249999999999998 0.0 0.0975
0.23249999999999998 0.0 0.10500000000000001
0.23249999999999998 0.0 0.1125
0.23249999999999998 0.0 0.1275
0.23249999999999998 0.0 0.13499999999999998
0.23249999999999998 0.0 0.14250000000000002
0.23249999999999998 0.0 0.15
0.23249999999999998 0.0 0.1575
0.23249999999999998 0.0 0.16499999999999998
0.23249999999999998 0.0 0.18
0.23249999999999998 0.0 0.1875
0.23249999999999998 0.0 0.195
0.23249999999999998 0.0 0.20249999999999999
0.23249999999999998 0.0 0.21749999999999997
0.23249999999999998 0.0 0.225
0.23249999999999998 0.0 0.23249999999999998
0.23249999999999998 0.0 0.2475
0.23249999999999998 0.0075 0.015
0.23249999999999998 0.0075 0.0225
0.23249999999999998 0.0075 0.0375
0.23249999999999998 0.0075 0.045
0.23249999999999998 0.0075 0.052500000000000005
0.23249999999999998 0.0075 0.06
0.23249999999999998 0.0075 0.06749999999999999
0.23249999999999998 0.0075 0.075
0.23249999999999998 0.0075 0.08249999999999999
0.23249999999999998 0.0075 0.09
0.23249999999999998 0.0075 0.0975
0.23249999999999998 0.0075 0.10500000000000001
0.23249999999999998 0.0075 0.1125
0.23249999999999998 0.0075 0.12
0.23249999999999998 0.0075 0.1275
0.23249999999999998 0.0075 0.13499999999999998
0.23249999999999998 0.0075 0.14250000000000002
0.23249999999999998 0.0075 0.15
0.23249999999999998 0.0075 0.1575
0.23249999999999998 0.0075 0.16499999999999998
0.23249999999999998 0.0075 0.1725
0.23249999999999998 0.0075 0.18
0.23249999999999998 0.0075 0.1875
0.23249999999999998 0.0075 0.195
0.23249999999999998 0.0075 0.20249999999999999
0.23249999999999998 0.0075 0.21000000000000002
0.23249999999999998 0.0075 0.21749999999999997
0.23249999999999998 0.0075 0.225
0.23249999999999998 0.0075 0.23249999999999998
0.23249999999999998 0.0075 0.24
0.23249999999999998 0.015 0.0225
0.23249999999999998 0.015 0.03
0.23249999999999998 0.015 0.0375
0.23249999999999998 0.015 0.052500000000000005
0.23249999999999998 0.015 0.06
0.23249999999999998 0.015 0.06749999999999999
0.23249999999999998 0.015 0.075
0.23249999999999998 0.015 0.08249999999999999
0.23249999999999998 0.015 0.09
0.23249999999999998 0.015 0.0975
0.23249999999999998 0.015 0.10500000000000001
0.23249999999999998 0.015 0.1125
0.23249999999999998 0.015 0.12
0.23249999999999998 0.015 0.1275
0.23249999999999998 0.015 0.13499999999999998
0.23249999999999998 0.015 0.14250000000000002
0.23249999999999998 0.015 0.15
0.23249999999999998 0.015 0.1575
0.23249999999999998 0.015 0.16499999999999998
0.23249999999999998 0.015 0.1725
0.23249999999999998 0.015 0.18
0.23249999999999998 0.015 0.1875
0.23249999999999998 0.015 0.195
0.23249999999999998 0.015 0.20249999999999999
0.23249999999999998 0.015 0.21000000000000002
0.23249999999999998 0.015 0.225
0.23249999999999998 0.015 0.23249999999999998
0.23249999999999998 0.015 0.24
0.23249999999999998 0.0225 0.225
0.23249999999999998 0.06 0.10500000000000001
0.23249999999999998 0.06749999999999999 0.0975
0.23249999999999998 0.075 0.0225
0.23249999999999998 0.075 0.03
0.23249999999999998 0.08249999999999999 0.0225
0.24 0.0 0.0225
0.24 0.0 0.03
0.24 0.0 0.0375
0.24 0.0 0.045
0.24 0.0 0.052500000000000005
0.24 0.0 0.06
0.24 0.0 0.06749999999999999
0.24 0.0 0.075
0.24 0.0 0.08249999999999999
0.24 0.0 0.09
0.24 0.0 0.0975
0.24 0.0 0.10500000000000001
0.24 0.0 0.1125
0.24 0.0 0.12
0.24 0.0 0.1275
0.24 0.0 0.13499999999999998
0.24 0.0 0.14250000000000002
0.24 0.0 0.15
0.24 0.0 0.16499999999999998
0.24 0.0 0.1725
0.24 0.0 0.18
0.24 0.0 0.195
0.24 0.0 0.20249999999999999
0.24 0.0 0.21000000000000002
0.24 0.0 0.21749999999999997
0.24 0.0 0.225
0.24 0.0 0.23249999999999998
0.24 0.0 0.24
0.24 0.0 0.255
0.24 0.0075 0.015
0.24 0.0075 0.0225
0.24 0.0075 0.03
0.24 0.0075 0.045
0.24 0.0075 0.0975
0.24 0.0075 0.10500000000000001
0.24 0.0075 0.1125
0.24 0.0075 0.12
0.24 0.0075 0.1275
0.24 0.0075 0.13499999999999998
0.24 0.0075 0.14250000000000002
0.24 0.0075 0.15
0.24 0.0075 0.1575
0.24 0.0075 0.16499999999999998
0.24 0.0075 0.18
0.24 0.0075 0.1875
0.24 0.0075 0.195
0.24 0.0075 0.20249999999999999
0.24 0.0075 0.21000000000000002
0.24 0.0075 0.21749999999999997
0.24 0.0075 0.225
0.24 0.0075 0.23249999999999998
0.24 0.015 0.015
0.24 0.015 0.03
0.24 0.015 0.052500000000000005
0.24 0.015 0.06749999999999999
0.24 0.015 0.0975
0.24 0.015 0.10500000000000001
0.24 0.015 0.1125
0.24 0.015 0.12
0.24 0.015 0.13499999999999998
0.24 0.015 0.15
0.24 0.015 0.1575
0.24 0.015 0.1725
0.24 0.015 0.18
0.24 0.015 0.1875
0.24 0.015 0.20249999999999999
0.24 0.015 0.21000000000000002
0.24 0.015 0.24
0.24 0.06749999999999999 0.10500000000000001
0.24 0.075 0.0975
0.24 0.075 0.10500000000000001
0.24 0.08249999999999999 0.0225
0.2475 0.0 0.0375
0.2475 0.0 0.0975
0.2475 0.0 0.10500000000000001
0.2475 0.0 0.1275
0.2475 0.0 0.13499999999999998
0.2475 0.0 0.14250000000000002
0.2475 0.0 0.15
0.2475 0.0 0.16499999999999998
0.2475 0.0 0.1725
0.2475 0.0 0.18
0.2475 0.0 0.195
0.2475 0.0 0.20249999999999999
0.2475 0.0 0.21749999999999997
0.2475 0.0 0.225
0.2475 0.0 0.23249999999999998
0.2475 0.0075 0.015
0.2475 0.0075 0.0225
0.2475 0.0075 0.03
0.2475 0.0075 0.0375
0.2475 0.0075 0.045
0.2475 0.0075 0.075
0.2475 0.0075 0.08249999999999999
0.2475 0.0075 0.09
0.2475 0.0075 0.10500000000000001
0.2475 0.0075 0.1125
0.2475 0.0075 0.12
0.2475 0.0075 0.1275
0.2475 0.0075 0.13499999999999998
0.2475 0.0075 0.1575
0.2475 0.0075 0.16499999999999998
0.2475 0.0075 0.1725
0.2475 0.0075 0.18
0.2475 0.0075 0.1875
0.2475 0.0075 0.195
0.2475 0.0075 0.20249999999999999
0.2475 0.0075 0.21000000000000002
0.2475 0.0075 0.21749999999999997
0.2475 0.0075 0.23249999999999998
0.2475 0.0075 0.2475
0.2475 0.0075 0.255
0.2475 0.015 0.015
0.2475 0.015 0.0225
0.2475 0.015 0.052500000000000005
0.2475 0.015 0.08249999999999999
0.2475 0.015 0.0975
0.2475 0.015 0.1125
0.2475 0.015 0.12
0.2475 0.015 0.1275
0.2475 0.015 0.15
0.2475 0.015 0.1575
0.255 0.0075 0.03
0.255 0.0075 0.0975
0.255 0.0075 0.10500000000000001
0.255 0.0075 0.1125
0.255 0.0075 0.1275
0.255 0.0075 0.13499999999999998
0.255 0.0075 0.15
0.255 0.0075 0.1575
0.255 0.0075 0.16499999999999998
0.255 0.0075 0.18
0.255 0.0075 0.1875
0.255 0.0075 0.195
0.255 0.0075 0.20249999999999999
0.255 0.0075 0.21000000000000002
0.255 0.0075 0.21749999999999997
0.255 0.0075 0.24
0.255 0.015 0.03
0.255 0.015 0.0375
0.255 0.015 0.06
0.255 0.015 0.06749999999999999
0.255 0.015 0.075
0.255 0.015 0.08249999999999999
0.255 0.015 0.09
0.255 0.015 0.0975
0.255 0.015 0.1125
0.255 0.015 0.12
0.255 0.015 0.1275
0.255 0.015 0.14250000000000002
0.255 0.015 0.16499999999999998
0.255 0.015 0.1725
0.255 0.015 0.18
0.255 0.015 0.20249999999999999
0.255 0.015 0.21000000000000002
0.255 0.015 0.21749999999999997
0.255 0.015 0.24
0.255 0.015 0.255
0.255 0.09 0.0975
0.2625 0.0075 0.21000000000000002
0.2625 0.015 0.10500000000000001
0.2625 0.015 0.1125
0.2625 0.015 0.12
0.2625 0.015 0.13499999999999998
0.2625 0.015 0.15
0.2625 0.015 0.1575
0.2625 0.015 0.16499999999999998
0.2625 0.015 0.1725
0.2625 0.015 0.18
0.2625 0.015 0.1875
0.2625 0.015 0.195
0.2625 0.015 0.20249999999999999
0.2625 0.015 0.21000000000000002
0.2625 0.015 0.21749999999999997
0.2625 0.015 0.225
0.2625 0.015 0.23249999999999998
0.2625 0.015 0.24
0.2625 0.0975 0.0975
