ply
format ascii 1.0
comment Created by Open3D
element vertex 1342
property double x
property double y
property double z
property uchar red
property uchar green
property uchar blue
end_header
0.344589 0.207162 1.054 140 140 134
0.345743 0.207162 1.054 139 140 132
0.347226 0.207358 1.055 131 132 124
0.263813 0.244683 1.238 154 154 148
0.264954 0.244485 1.237 160 156 149
0.265878 0.24409 1.235 161 157 150
0.266581 0.243497 1.232 160 156 149
0.267494 0.243102 1.23 151 147 140
0.268185 0.242509 1.227 141 142 134
0.26799 0.241125 1.22 133 134 126
0.268001 0.239939 1.214 133 139 132
0.290753 0.232627 1.177 137 144 140
0.292538 0.233022 1.179 142 149 145
0.294078 0.23322 1.18 147 152 148
0.294869 0.232824 1.178 149 154 150
0.295655 0.232429 1.176 153 154 151
0.296185 0.231836 1.173 155 156 153
0.296708 0.231243 1.17 154 156 150
0.296715 0.230255 1.165 152 154 148
0.296456 0.229069 1.159 152 154 148
0.296697 0.228278 1.155 152 154 148
0.296929 0.227488 1.151 153 155 149
0.296635 0.226302 1.145 152 154 148
0.296587 0.225314 1.14 150 152 146
0.296529 0.224326 1.135 151 153 147
0.296197 0.22314 1.129 161 162 154
0.296116 0.222151 1.124 161 162 154
0.295759 0.220966 1.118 161 162 154
0.29592 0.220175 1.114 162 163 155
0.295539 0.218989 1.108 161 162 154
0.295413 0.218001 1.103 160 161 153
0.295813 0.217408 1.1 160 162 151
0.296207 0.216815 1.097 162 164 153
0.296866 0.21642 1.095 165 165 154
0.297248 0.215827 1.092 156 156 145
0.297896 0.215432 1.09 157 157 146
0.298541 0.215036 1.088 159 159 148
0.299456 0.214839 1.087 163 165 154
0.300369 0.214641 1.086 157 159 148
0.301281 0.214443 1.085 155 157 146
0.302189 0.214246 1.084 152 154 143
0.303376 0.214246 1.084 145 147 136
0.304001 0.21385 1.082 162 164 153
0.305185 0.21385 1.082 161 163 152
0.306086 0.213653 1.081 159 161 150
0.306985 0.213455 1.08 157 157 146
0.307882 0.213258 1.079 158 158 147
0.30849 0.212862 1.077 157 157 146
0.309094 0.212467 1.075 158 158 147
0.309982 0.212269 1.074 159 159 148
0.310868 0.212072 1.073 162 162 151
0.311461 0.211676 1.071 162 162 151
0.312341 0.211479 1.07 161 161 150
0.313219 0.211281 1.069 164 161 151
0.31439 0.211281 1.069 166 163 153
0.315265 0.211083 1.068 166 163 153
0.316137 0.210886 1.067 166 163 153
0.317305 0.210886 1.067 167 164 154
0.318175 0.210688 1.066 171 168 158
0.319342 0.210688 1.066 156 152 145
0.320208 0.21049 1.065 127 123 116
0.321373 0.21049 1.065 134 130 123
0.322236 0.210293 1.064 143 139 132
0.323401 0.210293 1.064 158 154 147
0.324566 0.210293 1.064 155 151 144
0.325424 0.210095 1.063 154 154 143
0.326588 0.210095 1.063 155 155 144
0.327443 0.209898 1.062 155 155 144
0.328296 0.2097 1.061 154 154 143
0.329457 0.2097 1.061 152 154 143
0.330307 0.209502 1.06 153 155 144
0.331155 0.209305 1.059 154 155 147
0.332314 0.209305 1.059 152 153 145
0.332843 0.208909 1.057 149 151 140
0.334 0.208909 1.057 149 151 140
0.33484 0.208712 1.056 148 150 139
0.335678 0.208514 1.055 149 151 140
0.336833 0.208514 1.055 150 150 139
0.337667 0.208316 1.054 150 150 139
0.338821 0.208316 1.054 149 148 140
0.339975 0.208316 1.054 147 146 138
0.341128 0.208316 1.054 144 144 138
0.342282 0.208316 1.054 142 142 136
0.343436 0.208316 1.054 140 140 134
0.344589 0.208316 1.054 139 139 133
0.346071 0.208514 1.055 135 137 131
0.347226 0.208514 1.055 133 135 129
0.264526 0.245443 1.235 158 157 149
0.265663 0.245244 1.234 158 157 149
0.266364 0.244648 1.231 160 157 147
0.267277 0.24425 1.229 159 156 146
0.267748 0.243455 1.225 159 161 150
0.26799 0.242462 1.22 141 143 132
0.26778 0.24107 1.213 128 135 126
0.267555 0.239679 1.206 133 140 131
0.290801 0.232922 1.172 145 152 148
0.292333 0.233121 1.173 144 151 147
0.293367 0.232922 1.172 146 153 149
0.294147 0.232525 1.17 151 156 152
0.294922 0.232127 1.168 151 156 152
0.29544 0.231531 1.165 150 155 151
0.295697 0.230736 1.161 149 154 150
0.295944 0.229941 1.157 152 154 148
0.296183 0.229146 1.153 152 154 148
0.296413 0.228351 1.149 152 154 148
0.296376 0.227357 1.144 152 154 148
0.296067 0.226165 1.138 152 154 148
0.296268 0.22537 1.134 152 154 148
0.296197 0.224376 1.129 155 158 150
0.296116 0.223383 1.124 162 165 157
0.295759 0.22219 1.118 160 163 155
0.29592 0.221395 1.114 160 163 155
0.295806 0.220402 1.109 159 162 154
0.29568 0.219408 1.104 155 158 150
0.296082 0.218812 1.101 157 159 148
0.296477 0.218215 1.098 157 159 148
0.297137 0.217818 1.096 157 159 148
0.29752 0.217222 1.093 156 158 147
0.298443 0.217023 1.092 156 158 147
0.29909 0.216626 1.09 159 161 150
0.299732 0.216228 1.088 161 163 152
0.300646 0.216029 1.087 160 162 151
0.301836 0.216029 1.087 156 158 147
0.302747 0.215831 1.086 156 158 147
0.303656 0.215632 1.085 155 157 146
0.304563 0.215433 1.084 157 159 148
0.305749 0.215433 1.084 157 159 148
0.306652 0.215234 1.083 156 158 147
0.307269 0.214837 1.081 156 158 147
0.307882 0.214439 1.079 157 159 148
0.308777 0.214241 1.078 159 159 148
0.309382 0.213843 1.076 158 158 147
0.310271 0.213644 1.075 159 159 148
0.311158 0.213446 1.074 159 159 148
0.311752 0.213048 1.072 159 159 148
0.312633 0.212849 1.071 159 159 148
0.313512 0.212651 1.07 159 159 148
0.31439 0.212452 1.069 163 163 152
0.31556 0.212452 1.069 165 165 154
0.316434 0.212253 1.068 166 166 155
0.317305 0.212055 1.067 169 169 158
0.318473 0.212055 1.067 173 173 162
0.319342 0.211856 1.066 137 132 127
0.320508 0.211856 1.066 125 120 115
0.321675 0.211856 1.066 127 125 119
0.322842 0.211856 1.066 146 144 138
0.323401 0.211458 1.064 151 150 142
0.324566 0.211458 1.064 154 153 145
0.32573 0.211458 1.064 155 154 146
0.326895 0.211458 1.064 156 155 147
0.327751 0.21126 1.063 155 156 148
0.328605 0.211061 1.062 153 154 146
0.329457 0.210862 1.061 152 153 145
0.330619 0.210862 1.061 153 154 146
0.331467 0.210663 1.06 154 155 147
0.332314 0.210465 1.059 151 152 144
0.333158 0.210266 1.058 148 149 141
0.334 0.210067 1.057 148 149 141
0.335157 0.210067 1.057 148 150 139
0.335996 0.209868 1.056 148 150 139
0.336833 0.20967 1.055 148 150 139
0.337988 0.20967 1.055 148 150 139
0.338821 0.209471 1.054 148 149 141
0.339975 0.209471 1.054 145 146 138
0.341128 0.209471 1.054 144 144 138
0.342282 0.209471 1.054 141 141 135
0.343436 0.209471 1.054 138 140 134
0.344916 0.20967 1.055 133 135 129
0.346399 0.209868 1.056 132 134 128
0.347555 0.209868 1.056 131 133 127
0.265232 0.246196 1.232 159 160 152
0.266148 0.245796 1.23 158 158 147
0.266842 0.245197 1.227 162 162 151
0.267311 0.244397 1.223 167 169 158
0.267331 0.243198 1.217 159 161 150
0.26756 0.242199 1.212 133 136 128
0.267555 0.241 1.206 132 135 127
0.288568 0.232407 1.163 142 151 149
0.29009 0.232607 1.164 140 150 145
0.291114 0.232407 1.163 143 153 148
0.291884 0.232008 1.161 146 153 149
0.292902 0.231808 1.16 149 156 152
0.293665 0.231408 1.158 151 156 152
0.293914 0.230609 1.154 150 155 151
0.29441 0.230009 1.151 150 155 151
0.294899 0.22941 1.148 150 155 151
0.295381 0.22881 1.145 150 155 151
0.295599 0.228011 1.141 150 155 151
0.295547 0.227012 1.136 150 155 151
0.295745 0.226213 1.132 149 154 150
0.295672 0.225213 1.127 147 149 143
0.295852 0.224414 1.123 157 159 153
0.295759 0.223415 1.118 157 160 152
0.29592 0.222616 1.114 157 160 152
0.296072 0.221816 1.11 157 160 152
0.296216 0.221017 1.106 154 157 149
0.296351 0.220217 1.102 156 157 149
0.297017 0.219818 1.1 157 158 150
0.297679 0.219418 1.098 159 161 150
0.298064 0.218819 1.095 159 161 150
0.298716 0.218419 1.093 159 161 150
0.299638 0.218219 1.092 159 161 150
0.300283 0.217819 1.09 159 161 150
0.301476 0.217819 1.09 157 159 148
0.302391 0.21762 1.089 157 159 148
0.303304 0.21742 1.088 157 159 148
0.304216 0.21722 1.087 156 158 147
0.305124 0.21702 1.086 156 158 147
0.306031 0.21682 1.085 147 149 138
0.306936 0.21662 1.084 154 156 145
0.307838 0.216421 1.083 157 159 148
0.308453 0.216021 1.081 159 161 150
0.309063 0.215621 1.079 159 159 148
0.309669 0.215222 1.077 158 158 147
0.310559 0.215022 1.076 158 158 147
0.311158 0.214622 1.074 157 157 146
0.312042 0.214422 1.073 157 157 146
0.312633 0.214023 1.071 161 161 150
0.313512 0.213823 1.07 161 161 150
0.31439 0.213623 1.069 163 163 152
0.31556 0.213623 1.069 166 166 155
0.31673 0.213623 1.069 166 166 155
0.317603 0.213423 1.068 175 174 166
0.318473 0.213223 1.067 159 158 150
0.319641 0.213223 1.067 125 120 115
0.320508 0.213023 1.066 129 124 119
0.321675 0.213023 1.066 139 134 129
0.322842 0.213023 1.066 149 144 139
0.324009 0.213023 1.066 150 148 142
0.325176 0.213023 1.066 153 151 145
0.326036 0.212824 1.065 153 153 147
0.327202 0.212824 1.065 155 155 149
0.32806 0.212624 1.064 156 156 150
0.329224 0.212624 1.064 154 154 148
0.329768 0.212224 1.062 151 151 145
0.330619 0.212024 1.061 153 153 147
0.33178 0.212024 1.061 152 153 145
0.332628 0.211824 1.06 151 152 144
0.333473 0.211625 1.059 149 150 142
0.334316 0.211425 1.058 148 149 141
0.335157 0.211225 1.057 147 148 140
0.335996 0.211025 1.056 147 148 140
0.337152 0.211025 1.056 147 148 140
0.337988 0.210825 1.055 148 149 141
0.339142 0.210825 1.055 147 148 140
0.339975 0.210625 1.054 145 146 138
0.341128 0.210625 1.054 139 139 133
0.342282 0.210625 1.054 139 139 133
0.343762 0.210825 1.055 135 137 131
0.344916 0.210825 1.055 131 133 127
0.346399 0.211025 1.056 129 131 125
0.347884 0.211225 1.057 128 130 124
0.265715 0.246742 1.228 156 158 147
0.266189 0.245938 1.224 167 169 158
0.266655 0.245134 1.22 163 165 154
0.266892 0.24413 1.215 163 165 154
0.266897 0.242924 1.209 147 150 142
0.267111 0.241919 1.204 142 145 137
0.267092 0.240714 1.198 126 131 127
0.267283 0.239709 1.193 133 138 134
0.286335 0.231873 1.154 131 140 138
0.287598 0.231873 1.154 136 145 143
0.288861 0.231873 1.154 140 149 147
0.290124 0.231873 1.154 145 152 148
0.290882 0.231471 1.152 147 154 150
0.291636 0.231069 1.15 147 154 150
0.29264 0.230868 1.149 147 154 150
0.292875 0.230065 1.145 149 154 150
0.293614 0.229663 1.143 148 153 149
0.29435 0.229261 1.141 148 153 149
0.294562 0.228457 1.137 148 153 149
0.294766 0.227653 1.133 148 153 149
0.294961 0.22685 1.129 147 152 148
0.295148 0.226046 1.125 150 152 146
0.295325 0.225242 1.121 152 154 148
0.295759 0.224639 1.118 154 156 150
0.29592 0.223836 1.114 154 156 150
0.296339 0.223233 1.111 153 156 148
0.296752 0.22263 1.108 154 157 149
0.296889 0.221826 1.104 155 158 150
0.297557 0.221425 1.102 155 158 150
0.298221 0.221023 1.1 158 161 153
0.298881 0.220621 1.098 158 161 153
0.299536 0.220219 1.096 159 161 150
0.300462 0.220018 1.095 159 161 150
0.301109 0.219616 1.093 155 157 146
0.302029 0.219415 1.092 156 158 147
0.302947 0.219214 1.091 157 159 148
0.303862 0.219013 1.09 157 159 148
0.304775 0.218812 1.089 157 159 148
0.305405 0.218411 1.087 153 155 144
0.306595 0.218411 1.087 142 144 133
0.307219 0.218009 1.085 153 155 144
0.308122 0.217808 1.084 157 159 148
0.308453 0.217205 1.081 159 161 150
0.309063 0.216803 1.079 157 159 148
0.309669 0.216401 1.077 156 158 147
0.310559 0.2162 1.076 155 157 146
0.311158 0.215799 1.074 153 155 144
0.312333 0.215799 1.074 157 157 146
0.312633 0.215196 1.071 162 162 151
0.313805 0.215196 1.071 162 162 151
0.314684 0.214995 1.07 164 164 153
0.315855 0.214995 1.07 166 166 155
0.31673 0.214794 1.069 175 175 164
0.3179 0.214794 1.069 169 169 158
0.318772 0.214593 1.068 148 148 137
0.319941 0.214593 1.068 126 124 118
0.320809 0.214392 1.067 141 139 133
0.321977 0.214392 1.067 147 145 139
0.323145 0.214392 1.067 148 146 140
0.324009 0.214191 1.066 147 147 141
0.325176 0.214191 1.066 149 149 143
0.326343 0.214191 1.066 151 153 147
0.327509 0.214191 1.066 150 152 146
0.328368 0.21399 1.065 151 153 147
0.329224 0.213789 1.064 151 153 147
0.330078 0.213588 1.063 150 152 146
0.33093 0.213387 1.062 152 154 148
0.33178 0.213186 1.061 154 155 147
0.332628 0.212986 1.06 153 154 146
0.333473 0.212785 1.059 151 152 144
0.334316 0.212584 1.058 148 149 141
0.335157 0.212383 1.057 147 148 140
0.336314 0.212383 1.057 147 148 140
0.337152 0.212182 1.056 147 149 138
0.337988 0.211981 1.055 148 150 139
0.339142 0.211981 1.055 147 148 140
0.339975 0.21178 1.054 144 145 137
0.341128 0.21178 1.054 137 137 131
0.342607 0.211981 1.055 137 137 131
0.343762 0.211981 1.055 133 135 129
0.345243 0.212182 1.056 131 133 127
0.346727 0.212383 1.057 128 130 124
0.347884 0.212383 1.057 111 113 107
0.265066 0.247481 1.225 153 155 144
0.265754 0.246875 1.222 168 170 159
0.266218 0.246067 1.218 160 162 151
0.266453 0.245056 1.213 160 162 151
0.266456 0.243844 1.207 161 164 156
0.26689 0.243036 1.203 155 158 150
0.266869 0.241824 1.197 147 148 145
0.267059 0.240814 1.192 136 137 134
0.267463 0.240006 1.188 128 132 131
0.284102 0.231319 1.145 131 140 138
0.285604 0.231521 1.146 139 145 144
0 0 0 141 147 146
0.287862 0.231319 1.145 144 151 147
0.288862 0.231117 1.144 146 153 149
0.289861 0.230915 1.143 148 153 149
0.290603 0.230511 1.141 146 151 147
0.29134 0.230107 1.139 148 153 149
0.292073 0.229703 1.137 147 152 148
0.292802 0.229299 1.135 146 151 147
0.293526 0.228894 1.133 146 151 147
0.293726 0.228086 1.129 150 151 148
0.294439 0.227682 1.127 150 151 148
0.294623 0.226874 1.123 150 151 148
0.295062 0.226268 1.12 152 153 150
0.295494 0.225662 1.117 153 155 149
0.29592 0.225056 1.114 153 155 149
0.296606 0.224652 1.112 153 155 149
0.29702 0.224046 1.109 154 156 150
0.297427 0.22344 1.106 155 158 150
0.298097 0.223036 1.104 154 157 149
0.298764 0.222632 1.102 157 160 152
0.299425 0.222228 1.1 157 160 152
0.300083 0.221824 1.098 157 159 148
0.301285 0.221824 1.098 159 161 150
0.30166 0.221217 1.095 156 158 147
0.302859 0.221217 1.095 156 158 147
0.303502 0.220813 1.093 156 158 147
0.30442 0.220611 1.092 155 157 146
0.305335 0.220409 1.091 157 159 148
0.306248 0.220207 1.09 159 161 150
0.306877 0.219803 1.088 157 159 148
0.307785 0.219601 1.087 157 159 148
0.308122 0.218995 1.084 157 159 148
0.308453 0.218389 1.081 159 161 150
0.30935 0.218187 1.08 157 159 148
0.310244 0.217985 1.079 156 158 147
0.310848 0.217581 1.077 156 158 147
0.311447 0.217177 1.075 156 158 147
0.312333 0.216975 1.074 156 158 147
0.313217 0.216773 1.073 161 163 152
0.313805 0.216369 1.071 164 164 153
0.314978 0.216369 1.071 165 165 154
0.31615 0.216369 1.071 163 163 152
0.317026 0.216167 1.07 172 172 161
0.3179 0.215965 1.069 133 133 122
0.31907 0.215965 1.069 122 122 111
0.32024 0.215965 1.069 139 138 130
0.32141 0.215965 1.069 144 143 135
0.322279 0.215763 1.068 147 145 139
0.323448 0.215763 1.068 149 147 141
0.324313 0.215561 1.067 151 151 145
0.325481 0.215561 1.067 153 153 147
0.326649 0.215561 1.067 152 154 148
0.327509 0.215359 1.066 151 153 147
0.328676 0.215359 1.066 151 153 147
0.329534 0.215157 1.065 151 153 147
0.330389 0.214955 1.064 151 153 147
0.331242 0.214753 1.063 152 154 148
0.332093 0.214551 1.062 154 155 147
0.332942 0.214349 1.061 153 154 146
0.333788 0.214147 1.06 152 153 145
0.334632 0.213945 1.059 151 152 144
0.335474 0.213743 1.058 148 149 141
0.336314 0.213541 1.057 148 149 141
0.337471 0.213541 1.057 148 149 141
0.338628 0.213541 1.057 147 148 140
0.339464 0.213339 1.056 145 146 138
0.34062 0.213339 1.056 141 142 134
0.341452 0.213136 1.055 137 137 131
0.342607 0.213136 1.055 139 139 133
0.344087 0.213339 1.056 139 139 133
0.34557 0.213541 1.057 133 133 127
0.346727 0.213541 1.057 123 125 119
0.348213 0.213743 1.058 119 121 115
0.264884 0.247401 1.218 154 157 149
0.265562 0.246791 1.215 159 160 152
0.265574 0.245573 1.209 160 161 153
0.266014 0.24476 1.205 160 162 156
0.266224 0.243745 1.2 161 163 157
0.266423 0.242729 1.195 153 155 149
0.266611 0.241713 1.19 147 149 143
0.267238 0.241104 1.187 126 127 124
0.267632 0.240292 1.183 128 129 126
0.26779 0.239276 1.178 132 137 133
0.284109 0.231557 1.14 141 147 146
0.285106 0.231354 1.139 142 148 147
0.286102 0.231151 1.138 144 151 147
0.287095 0.230948 1.137 146 153 149
0.288086 0.230745 1.136 148 153 149
0.289075 0.230542 1.135 143 148 144
0.290061 0.230339 1.134 147 152 148
0.291046 0.230136 1.133 144 149 145
0.29177 0.229729 1.131 147 152 148
0.29249 0.229323 1.129 150 155 151
0.293205 0.228917 1.127 153 154 151
0.293916 0.228511 1.125 151 152 149
0.294623 0.228104 1.123 151 152 149
0.295325 0.227698 1.121 153 154 151
0.295759 0.227089 1.118 152 154 148
0.296186 0.226479 1.115 152 154 148
0.297139 0.226276 1.114 152 154 148
0.297555 0.225667 1.111 154 156 150
0.297965 0.225057 1.108 154 157 149
0.298907 0.224854 1.107 152 155 147
0.299577 0.224448 1.105 154 157 149
0.300514 0.224245 1.104 155 158 150
0.300903 0.223636 1.101 154 158 147
0.302108 0.223636 1.101 154 158 147
0.302487 0.223026 1.098 153 157 146
0.303412 0.222823 1.097 154 158 147
0.304057 0.222417 1.095 154 158 147
0.304977 0.222214 1.094 153 157 146
0.305615 0.221808 1.092 154 158 147
0.306248 0.221401 1.09 155 159 148
0.307441 0.221401 1.09 157 161 150
0.307785 0.220792 1.087 155 159 148
0.308406 0.220386 1.085 154 158 147
0.308738 0.219776 1.082 154 158 147
0.30935 0.21937 1.08 153 157 146
0.310244 0.219167 1.079 154 158 147
0.310848 0.218761 1.077 156 158 147
0.311737 0.218558 1.076 157 159 148
0.312333 0.218151 1.074 159 161 150
0.313509 0.218151 1.074 162 164 153
0.314099 0.217745 1.072 162 164 153
0.314978 0.217542 1.071 163 165 154
0.31615 0.217542 1.071 153 154 141
0.317322 0.217542 1.071 156 157 144
0.318495 0.217542 1.071 113 113 102
0.319369 0.217339 1.07 119 119 108
0.32024 0.217136 1.069 142 141 133
0.32141 0.217136 1.069 144 143 135
0.322581 0.217136 1.069 148 147 139
0.323751 0.217136 1.069 150 149 141
0.324921 0.217136 1.069 151 151 145
0.325786 0.216933 1.068 152 152 146
0.326955 0.216933 1.068 151 153 147
0.327817 0.21673 1.067 152 154 148
0.328676 0.216526 1.066 152 154 148
0.329843 0.216526 1.066 151 153 147
0.330389 0.21612 1.064 150 152 146
0.331554 0.21612 1.064 146 148 142
0.332093 0.215714 1.062 146 149 141
0.332942 0.215511 1.061 150 153 145
0.333788 0.215308 1.06 150 153 145
0.334632 0.215105 1.059 149 152 144
0.335791 0.215105 1.059 147 150 142
0.336632 0.214901 1.058 146 149 141
0.337791 0.214901 1.058 145 148 140
0.338628 0.214698 1.057 144 147 139
0.339785 0.214698 1.057 139 142 134
0.340942 0.214698 1.057 137 140 132
0.341776 0.214495 1.056 137 139 133
0.343256 0.214698 1.057 139 141 135
0.344413 0.214698 1.057 128 128 122
0.34557 0.214698 1.057 121 121 115
0.346727 0.214698 1.057 124 124 118
0.348213 0.214901 1.058 123 123 117
0.264469 0.247101 1.21 155 161 154
0.264915 0.246284 1.206 156 162 155
0.265131 0.245263 1.201 160 162 156
0.265558 0.244446 1.197 164 166 160
0.2662 0.243834 1.194 160 162 156
0.266611 0.243017 1.19 165 167 161
0.267013 0.2422 1.186 153 154 151
0.267406 0.241383 1.182 146 147 144
0.268018 0.24077 1.179 137 138 135
0.268851 0.240362 1.177 136 137 134
0.269451 0.239749 1.174 133 138 134
0.282614 0.231581 1.134 149 153 152
0.283605 0.231377 1.133 147 151 150
0.284845 0.231377 1.133 147 152 148
0.286085 0.231377 1.133 147 152 148
0.286818 0.230968 1.131 147 152 148
0.287801 0.230764 1.13 144 149 145
0.289038 0.230764 1.13 144 149 145
0.290018 0.23056 1.129 144 149 145
0.290738 0.230151 1.127 149 150 147
0.291712 0.229947 1.126 149 150 147
0.292685 0.229743 1.125 151 152 149
0.293655 0.229539 1.124 152 153 150
0.294361 0.22913 1.122 152 153 150
0.295325 0.228926 1.121 152 153 150
0.296023 0.228518 1.119 152 154 148
0.296717 0.228109 1.117 153 155 149
0.297673 0.227905 1.116 154 156 150
0.298359 0.227496 1.114 154 156 150
0.29904 0.227088 1.112 154 156 150
0.299987 0.226884 1.111 152 154 148
0.300932 0.22668 1.11 152 154 148
0.301603 0.226271 1.108 154 156 150
0.302269 0.225863 1.106 155 158 150
0.302931 0.225454 1.104 157 160 152
0.303589 0.225046 1.102 155 158 150
0.304518 0.224842 1.101 154 157 149
0.30489 0.224229 1.098 153 157 146
0.305535 0.223821 1.096 153 157 146
0.306175 0.223412 1.094 153 157 146
0.30681 0.223004 1.092 153 157 146
0.307441 0.222595 1.09 154 158 147
0.308068 0.222187 1.088 154 158 147
0.308691 0.221778 1.086 152 156 145
0.309023 0.221166 1.083 152 156 145
0.309636 0.220757 1.081 152 156 145
0.310532 0.220553 1.08 152 156 145
0.311425 0.220349 1.079 153 157 146
0.312027 0.21994 1.077 154 158 147
0.312915 0.219736 1.076 160 162 151
0.313509 0.219328 1.074 162 164 153
0.314685 0.219328 1.074 161 163 152
0.315566 0.219124 1.073 164 166 155
0.316741 0.219124 1.073 159 160 147
0.317619 0.218919 1.072 137 138 125
0.318495 0.218715 1.071 124 126 115
0.319667 0.218715 1.071 140 142 131
0.320839 0.218715 1.071 144 145 137
0.321711 0.218511 1.07 144 145 137
0.322882 0.218511 1.07 148 148 142
0.324053 0.218511 1.07 151 151 145
0.324921 0.218307 1.069 152 152 146
0.326091 0.218307 1.069 152 152 146
0.327261 0.218307 1.069 150 152 146
0.328124 0.218103 1.068 151 153 147
0.328985 0.217898 1.067 150 152 146
0.329843 0.217694 1.066 151 153 147
0.330699 0.21749 1.065 150 153 145
0.331554 0.217286 1.064 147 150 142
0.332406 0.217081 1.063 146 149 141
0.332942 0.216673 1.061 147 150 142
0.334103 0.216673 1.061 147 150 142
0.334632 0.216265 1.059 149 152 144
0.335791 0.216265 1.059 144 147 139
0.336951 0.216265 1.059 144 147 139
0.33811 0.216265 1.059 143 146 138
0.338949 0.21606 1.058 143 146 138
0.340107 0.21606 1.058 139 142 134
0.340942 0.215856 1.057 136 139 131
0.342099 0.215856 1.057 140 143 135
0.343256 0.215856 1.057 138 141 133
0.344739 0.21606 1.058 124 124 118
0.345897 0.21606 1.058 124 124 118
0.347055 0.21606 1.058 123 123 117
0.348542 0.216265 1.059 121 121 115
0.263817 0.246579 1.201 153 160 156
0.264248 0.245758 1.197 159 164 160
0.265115 0.245347 1.195 161 166 162
0.265531 0.244526 1.191 161 166 162
0.266163 0.24391 1.188 162 167 163
0.266787 0.243294 1.185 172 174 168
0.267406 0.242678 1.182 157 159 153
0.268018 0.242062 1.179 164 166 160
0.268623 0.241446 1.176 143 145 139
0.269451 0.241035 1.174 138 140 134
0.269814 0.240214 1.17 139 141 135
0.269936 0.239188 1.165 140 141 138
0.27028 0.238366 1.161 137 138 135
0.270381 0.23734 1.156 136 137 134
0.280132 0.231796 1.129 155 159 158
0.281367 0.231796 1.129 156 160 159
0.282603 0.231796 1.129 154 158 157
0.283839 0.231796 1.129 142 147 143
0.284822 0.231591 1.128 147 152 148
0.286057 0.231591 1.128 147 152 148
0.287037 0.231386 1.127 144 149 145
0.288271 0.231386 1.127 145 146 143
0.289247 0.23118 1.126 146 147 144
0.290222 0.230975 1.125 146 147 144
0.291453 0.230975 1.125 147 148 145
0.292685 0.230975 1.125 150 151 148
0.293655 0.23077 1.124 151 152 149
0.294623 0.230564 1.123 151 152 149
0.295589 0.230359 1.122 152 153 150
0.296552 0.230154 1.121 153 155 149
0.297514 0.229949 1.12 153 155 149
0.298473 0.229743 1.119 154 156 150
0.29943 0.229538 1.118 155 157 151
0.300116 0.229127 1.116 154 156 150
0.301068 0.228922 1.115 152 154 148
0.302017 0.228717 1.114 152 154 148
0.302692 0.228306 1.112 152 154 148
0.303362 0.227895 1.11 153 155 149
0.304029 0.227485 1.108 155 157 151
0.304966 0.22728 1.107 154 156 150
0.305348 0.226664 1.104 154 156 150
0.305723 0.226048 1.101 152 155 147
0.306371 0.225637 1.099 151 154 146
0.306734 0.225021 1.096 151 154 146
0.307091 0.224405 1.093 151 154 146
0.308005 0.2242 1.092 149 153 142
0.308351 0.223584 1.089 152 156 145
0.308975 0.223173 1.087 153 157 146
0.309309 0.222557 1.084 151 155 144
0.309636 0.221941 1.081 151 155 144
0.310532 0.221736 1.08 153 157 146
0.311425 0.221531 1.079 154 158 147
0.312606 0.221531 1.079 157 161 150
0.313206 0.22112 1.077 160 162 151
0.314093 0.220915 1.076 160 162 151
0.314977 0.22071 1.075 163 165 154
0.31586 0.220504 1.074 164 166 155
0.317036 0.220504 1.074 128 130 119
0.318211 0.220504 1.074 118 120 109
0.31909 0.220299 1.073 132 135 127
0.319966 0.220094 1.072 140 143 135
0.320839 0.219888 1.071 142 143 140
0.322012 0.219888 1.071 144 145 142
0.323184 0.219888 1.071 146 147 144
0.324053 0.219683 1.07 150 151 148
0.325225 0.219683 1.07 151 153 147
0.326091 0.219478 1.069 150 152 146
0.327261 0.219478 1.069 150 152 146
0.328124 0.219272 1.068 150 152 146
0.328985 0.219067 1.067 150 152 146
0.329843 0.218862 1.066 151 153 147
0.330699 0.218656 1.065 150 153 145
0.331554 0.218451 1.064 146 149 141
0.332406 0.218246 1.063 146 149 141
0.333255 0.218041 1.062 146 149 141
0.334103 0.217835 1.061 146 149 141
0.334948 0.21763 1.06 146 149 141
0.335791 0.217425 1.059 144 147 139
0.336951 0.217425 1.059 142 145 137
0.33811 0.217425 1.059 142 145 137
0.339269 0.217425 1.059 139 142 134
0.340428 0.217425 1.059 139 142 134
0.341587 0.217425 1.059 138 141 133
0.342423 0.217219 1.058 139 140 132
0.343906 0.217425 1.059 145 146 138
0.345065 0.217425 1.059 125 126 118
0.346224 0.217425 1.059 119 120 112
0.347711 0.21763 1.06 121 121 115
0.349201 0.217835 1.061 121 121 115
0.264227 0.24583 1.191 156 163 159
0.265085 0.245417 1.189 158 164 157
0.265714 0.244798 1.186 164 170 163
0.266337 0.244179 1.183 165 167 161
0.26718 0.243766 1.181 161 163 157
0.26779 0.243147 1.178 169 169 163
0.268623 0.242734 1.176 160 160 154
0.269451 0.242321 1.174 168 168 162
0.269814 0.241496 1.17 160 160 154
0.270399 0.240876 1.167 152 152 146
0.270978 0.240257 1.164 151 151 145
0.271083 0.239225 1.159 151 149 143
0.271177 0.238193 1.154 153 151 145
0.271496 0.237368 1.15 154 152 146
0.271568 0.236336 1.145 157 155 149
0.271869 0.23551 1.141 147 144 141
0.27216 0.234684 1.137 143 140 137
0.273164 0.234478 1.136 158 158 158
0.273925 0.234065 1.134 158 158 158
0.274923 0.233859 1.133 151 151 151
0.279143 0.233239 1.13 161 161 161
0.280132 0.233033 1.129 161 161 161
0.281367 0.233033 1.129 165 166 163
0.282353 0.232827 1.128 172 173 170
0.283588 0.232827 1.128 154 155 152
0.28457 0.23262 1.127 152 153 150
0.285803 0.23262 1.127 150 151 148
0.287037 0.23262 1.127 145 146 143
0.288271 0.23262 1.127 144 145 142
0.289247 0.232414 1.126 145 146 143
0.290738 0.23262 1.127 145 146 143
0.291972 0.23262 1.127 146 147 144
0.292945 0.232414 1.126 149 150 147
0.294178 0.232414 1.126 150 151 148
0.29541 0.232414 1.126 151 153 147
0.296379 0.232207 1.125 151 153 147
0.297611 0.232207 1.125 150 152 146
0.298576 0.232001 1.124 146 148 142
0.29954 0.231795 1.123 152 154 148
0.300234 0.231382 1.121 151 153 147
0.301192 0.231175 1.12 151 153 147
0.302148 0.230969 1.119 154 156 150
0.303101 0.230763 1.118 161 163 157
0.303781 0.23035 1.116 152 154 148
0.304456 0.229937 1.114 152 154 148
0.305126 0.229524 1.112 154 156 150
0.306068 0.229318 1.111 154 156 150
0.306454 0.228698 1.108 153 155 149
0.306556 0.227873 1.104 151 153 147
0.307207 0.22746 1.102 151 153 147
0.307574 0.226841 1.099 151 154 146
0.307934 0.226222 1.096 145 148 140
0.30857 0.225809 1.094 142 146 135
0.308918 0.22519 1.091 157 161 150
0.309259 0.22457 1.088 154 158 147
0.309594 0.223951 1.085 151 155 144
0.310495 0.223745 1.084 152 156 145
0.311107 0.223332 1.082 153 157 146
0.312002 0.223126 1.081 155 159 148
0.312896 0.222919 1.08 157 161 150
0.313787 0.222713 1.079 160 162 151
0.314385 0.2223 1.077 161 163 152
0.315271 0.222093 1.076 171 173 162
0.316448 0.222093 1.076 138 140 129
0.317626 0.222093 1.076 117 118 110
0.318508 0.221887 1.075 131 132 124
0.319387 0.221681 1.074 140 140 134
0.320563 0.221681 1.074 148 148 142
0.321439 0.221474 1.073 149 148 145
0.322312 0.221268 1.072 149 148 145
0.323184 0.221061 1.071 151 150 147
0.324356 0.221061 1.071 152 151 148
0.325225 0.220855 1.07 152 152 146
0.326091 0.220649 1.069 152 152 146
0.327261 0.220649 1.069 149 151 145
0.328124 0.220442 1.068 150 152 146
0.328985 0.220236 1.067 150 152 146
0.329843 0.220029 1.066 150 152 146
0.330699 0.219823 1.065 149 152 144
0.331554 0.219617 1.064 146 149 141
0.332406 0.21941 1.063 145 148 140
0.333255 0.219204 1.062 144 147 139
0.334103 0.218997 1.061 144 147 139
0.335264 0.218997 1.061 143 146 138
0.336109 0.218791 1.06 143 146 138
0.337269 0.218791 1.06 142 145 137
0.338429 0.218791 1.06 142 145 137
0.339269 0.218585 1.059 145 148 140
0.340428 0.218585 1.059 136 139 131
0.341587 0.218585 1.059 124 127 119
0.342747 0.218585 1.059 113 114 106
0.343906 0.218585 1.059 113 114 106
0.345391 0.218791 1.06 114 113 105
0.346878 0.218997 1.061 118 117 109
0.348039 0.218997 1.061 119 120 112
0.34953 0.219204 1.062 118 119 111
0.264416 0.246097 1.186 155 161 154
0.265042 0.245475 1.183 166 172 165
0.265887 0.24506 1.181 168 168 162
0.266727 0.244645 1.179 169 169 163
0.267336 0.244022 1.176 170 170 164
0.268395 0.243815 1.175 173 173 167
0.268992 0.243192 1.172 178 176 170
0.269814 0.242777 1.17 172 170 164
0.270399 0.242155 1.167 165 163 157
0.271211 0.24174 1.165 168 166 160
0.271551 0.24091 1.161 164 162 156
0.271882 0.24008 1.157 158 156 150
0.272204 0.23925 1.153 159 157 151
0.272517 0.23842 1.149 163 161 155
0.272822 0.23759 1.145 163 161 155
0.273596 0.237175 1.143 157 155 149
0.274367 0.23676 1.141 162 161 158
0.275132 0.236345 1.139 160 159 156
0.275894 0.23593 1.137 160 158 158
0.276895 0.235722 1.136 160 158 158
0.277893 0.235515 1.135 162 160 160
0.27889 0.235307 1.134 164 162 162
0.279884 0.2351 1.133 164 163 160
0.280876 0.234892 1.132 166 165 162
0.281866 0.234685 1.131 167 166 163
0.282854 0.234477 1.13 167 166 163
0.283839 0.23427 1.129 166 165 162
0.285075 0.23427 1.129 155 154 151
0.286311 0.23427 1.129 142 143 140
0.287547 0.23427 1.129 144 145 142
0.288782 0.23427 1.129 144 145 142
0.289761 0.234062 1.128 144 145 142
0.291254 0.23427 1.129 143 144 141
0.29249 0.23427 1.129 144 145 142
0.293726 0.23427 1.129 147 148 145
0.294961 0.23427 1.129 149 150 147
0.296197 0.23427 1.129 149 151 145
0.297433 0.23427 1.129 150 152 146
0.298404 0.234062 1.128 137 143 136
0.299373 0.233855 1.127 139 145 138
0.300607 0.233855 1.127 146 153 144
0.301305 0.23344 1.125 148 155 146
0.302267 0.233232 1.124 148 155 146
0.302958 0.232817 1.122 152 159 150
0.303915 0.23261 1.121 154 161 152
0.30487 0.232402 1.12 150 157 148
0.305549 0.231987 1.118 149 155 148
0.306224 0.231572 1.116 150 156 149
0.306894 0.231157 1.114 150 156 149
0.307284 0.230535 1.111 149 155 148
0.307667 0.229912 1.108 148 154 147
0.308044 0.22929 1.105 147 153 146
0.308414 0.228667 1.102 151 153 147
0.308496 0.227837 1.098 150 152 146
0.309134 0.227422 1.096 140 143 135
0.309484 0.2268 1.093 154 157 149
0.309828 0.226177 1.09 154 158 147
0.310165 0.225555 1.087 152 156 145
0.310495 0.224932 1.084 154 156 145
0.311682 0.224932 1.084 156 158 147
0.312291 0.224517 1.082 159 161 150
0.313186 0.22431 1.081 159 161 150
0.314078 0.224102 1.08 163 163 152
0.314968 0.223895 1.079 172 172 161
0.315857 0.223687 1.078 157 157 146
0.317037 0.223687 1.078 108 108 97
0.317921 0.22348 1.077 130 133 125
0.3191 0.22348 1.077 145 148 140
0.319982 0.223272 1.076 142 143 140
0.320861 0.223065 1.075 147 148 145
0.321738 0.222857 1.074 150 151 148
0.322613 0.22265 1.073 150 151 148
0.323486 0.222442 1.072 150 152 146
0.324356 0.222235 1.071 150 152 146
0.325225 0.222027 1.07 150 152 146
0.326091 0.22182 1.069 147 149 143
0.327261 0.22182 1.069 149 151 145
0.327817 0.221405 1.067 149 151 145
0.328676 0.221197 1.066 149 151 145
0.329843 0.221197 1.066 149 151 145
0.33101 0.221197 1.066 147 150 142
0.331554 0.220782 1.064 144 147 139
0.332718 0.220782 1.064 144 147 139
0.333569 0.220575 1.063 142 145 137
0.334103 0.22016 1.061 140 143 135
0.335264 0.22016 1.061 142 145 137
0.336426 0.22016 1.061 142 145 137
0.337269 0.219952 1.06 140 143 135
0.338748 0.22016 1.061 144 151 142
0.33991 0.22016 1.061 132 139 130
0.34075 0.219952 1.06 132 135 127
0.34191 0.219952 1.06 137 140 132
0.34307 0.219952 1.06 95 95 89
0.344555 0.22016 1.061 109 109 103
0.345717 0.22016 1.061 116 114 108
0.347532 0.220575 1.063 114 112 106
0.349023 0.220782 1.064 116 114 108
0.350188 0.220782 1.064 115 113 107
0.264594 0.246353 1.181 155 156 153
0.265212 0.245728 1.178 171 169 163
0.266048 0.24531 1.176 176 174 168
0.267108 0.245102 1.175 175 173 167
0.267938 0.244685 1.173 170 168 162
0.268533 0.244059 1.17 171 169 163
0.269583 0.24385 1.169 175 173 167
0.270168 0.243224 1.166 175 170 165
0.271211 0.243016 1.165 174 169 164
0.271785 0.24239 1.162 164 159 154
0.272352 0.241764 1.159 166 161 156
0.272912 0.241138 1.156 167 162 157
0.273466 0.240513 1.153 167 162 157
0.274013 0.239887 1.15 168 163 158
0.274554 0.239261 1.147 168 163 158
0.275328 0.238844 1.145 165 163 157
0.27634 0.238635 1.144 165 163 157
0.277107 0.238218 1.142 165 162 159
0.27787 0.237801 1.14 165 162 159
0.278873 0.237592 1.139 165 162 159
0.279628 0.237175 1.137 168 165 162
0.280872 0.237175 1.137 168 165 162
0.281869 0.236967 1.136 168 165 162
0.282614 0.236549 1.134 166 166 160
0.283605 0.236341 1.133 168 168 162
0.284845 0.236341 1.133 166 167 164
0.285832 0.236132 1.132 155 156 153
0.286818 0.235924 1.131 142 143 140
0.288056 0.235924 1.131 142 143 140
0.289038 0.235715 1.13 143 143 143
0.290275 0.235715 1.13 144 144 144
0.29177 0.235924 1.131 143 144 141
0.293008 0.235924 1.131 143 144 141
0.294246 0.235924 1.131 145 146 143
0.295484 0.235924 1.131 146 147 144
0.296459 0.235715 1.13 144 149 145
0.29796 0.235924 1.131 142 147 143
0.298933 0.235715 1.13 128 135 126
0.299905 0.235506 1.129 115 122 113
0.30114 0.235506 1.129 115 122 113
0.302108 0.235298 1.128 142 149 140
0.302805 0.234881 1.126 149 152 144
0.303768 0.234672 1.125 153 156 148
0.304728 0.234463 1.124 153 156 148
0.305414 0.234046 1.122 152 155 147
0.306369 0.233838 1.121 152 154 148
0.306773 0.233212 1.118 152 154 148
0.307721 0.233003 1.117 152 154 148
0.308114 0.232377 1.114 153 155 149
0.3085 0.231752 1.111 152 154 148
0.30888 0.231126 1.108 151 153 147
0.308973 0.230291 1.104 151 153 147
0.309339 0.229666 1.101 152 154 148
0.309698 0.22904 1.098 152 155 147
0.31005 0.228414 1.095 152 155 147
0.310396 0.227788 1.092 152 155 147
0.310735 0.227162 1.089 153 156 148
0.311355 0.226745 1.087 156 158 147
0.311969 0.226328 1.085 159 161 150
0.312868 0.226119 1.084 163 165 154
0.313765 0.225911 1.083 161 163 152
0.314369 0.225494 1.081 170 170 159
0.315552 0.225494 1.081 150 150 139
0.316443 0.225285 1.08 103 105 94
0.317331 0.225076 1.079 119 121 110
0.318512 0.225076 1.079 137 144 135
0.319693 0.225076 1.079 143 150 141
0.320279 0.224659 1.077 142 148 141
0.321159 0.224451 1.076 144 150 143
0.322038 0.224242 1.075 147 152 148
0.322914 0.224034 1.074 147 152 148
0.323788 0.223825 1.073 147 149 143
0.324659 0.223616 1.072 150 152 146
0.325529 0.223408 1.071 147 149 143
0.326396 0.223199 1.07 146 148 142
0.327261 0.222991 1.069 147 149 143
0.328124 0.222782 1.068 147 149 143
0.328985 0.222573 1.067 149 151 145
0.329843 0.222365 1.066 147 149 143
0.33101 0.222365 1.066 145 148 140
0.331865 0.222156 1.065 144 147 139
0.332718 0.221948 1.064 144 147 139
0.333883 0.221948 1.064 142 145 137
0.334418 0.22153 1.062 139 142 134
0.335264 0.221322 1.061 140 143 135
0.336426 0.221322 1.061 140 143 135
0.337587 0.221322 1.061 142 145 137
0.338748 0.221322 1.061 136 143 134
0.33991 0.221322 1.061 113 120 111
0.341071 0.221322 1.061 119 125 118
0.342232 0.221322 1.061 92 98 91
0.343717 0.22153 1.062 71 73 67
0.345205 0.221739 1.063 81 83 77
0.346694 0.221948 1.064 108 104 104
0.347859 0.221948 1.064 112 108 108
0.349679 0.222365 1.066 111 110 107
0.264761 0.246599 1.176 159 159 153
0.265596 0.246179 1.174 164 164 158
0.266426 0.24576 1.172 168 168 162
0.267252 0.24534 1.17 167 167 161
0.268304 0.245131 1.169 171 170 162
0.269122 0.244711 1.167 171 170 162
0.269936 0.244292 1.165 172 171 163
0.270978 0.244082 1.164 176 175 167
0.271785 0.243663 1.162 164 160 153
0.272352 0.243034 1.159 167 163 156
0.273148 0.242614 1.157 170 166 159
0.27394 0.242195 1.155 171 167 160
0.274728 0.241776 1.153 170 165 160
0.275272 0.241147 1.15 168 163 158
0.27629 0.240937 1.149 168 163 158
0.277065 0.240517 1.147 167 162 157
0.277835 0.240098 1.145 165 163 157
0.278845 0.239888 1.144 165 163 157
0.279852 0.239679 1.143 165 163 157
0.280611 0.239259 1.141 168 166 160
0.28186 0.239259 1.141 164 162 156
0.282613 0.23884 1.139 169 167 161
0.28361 0.23863 1.138 164 162 156
0.284606 0.238421 1.137 176 174 168
0.285599 0.238211 1.136 140 141 138
0.286337 0.237791 1.134 154 155 152
0.287579 0.237791 1.134 143 144 141
0.288565 0.237582 1.133 139 140 137
0.289805 0.237582 1.133 139 144 140
0.291046 0.237582 1.133 139 144 140
0.292286 0.237582 1.133 137 142 138
0.293526 0.237582 1.133 139 144 140
0.294766 0.237582 1.133 141 146 142
0.296006 0.237582 1.133 141 146 142
0.297247 0.237582 1.133 140 145 141
0.298487 0.237582 1.133 141 146 142
0.299462 0.237372 1.132 136 143 134
0.300701 0.237372 1.132 119 126 117
0.301674 0.237162 1.131 104 111 102
0.302644 0.236953 1.13 123 130 121
0.303612 0.236743 1.129 146 149 141
0.304578 0.236533 1.128 146 149 141
0.304999 0.235904 1.125 151 154 146
0.306231 0.235904 1.125 152 155 147
0.306642 0.235275 1.122 152 154 148
0.307596 0.235065 1.121 152 154 148
0.308272 0.234646 1.119 152 153 150
0.308667 0.234017 1.116 153 154 151
0.309056 0.233388 1.113 154 156 150
0.309438 0.232759 1.11 152 154 148
0.309813 0.23213 1.107 150 152 146
0.310182 0.231501 1.104 152 154 148
0.310544 0.230872 1.101 151 154 146
0.3109 0.230243 1.098 151 154 146
0.311249 0.229613 1.095 152 155 147
0.311306 0.228775 1.091 152 155 147
0.311927 0.228355 1.089 155 157 146
0.312832 0.228146 1.088 162 164 153
0.313734 0.227936 1.087 176 178 167
0.314345 0.227517 1.085 164 166 155
0.315241 0.227307 1.084 153 155 144
0.316136 0.227097 1.083 102 104 93
0.316736 0.226678 1.081 110 114 103
0.317919 0.226678 1.081 138 142 131
0.319102 0.226678 1.081 134 141 132
0.319989 0.226468 1.08 141 148 139
0.320874 0.226258 1.079 141 149 142
0.321756 0.226049 1.078 142 150 143
0.322337 0.225629 1.076 144 151 147
0.323515 0.225629 1.076 142 149 145
0.324089 0.22521 1.074 143 149 142
0.324962 0.225 1.073 147 153 146
0.325833 0.224791 1.072 146 148 142
0.326701 0.224581 1.071 146 148 142
0.327567 0.224371 1.07 146 148 142
0.328431 0.224161 1.069 146 148 142
0.329293 0.223952 1.068 146 148 142
0.330462 0.223952 1.068 145 147 141
0.33132 0.223742 1.067 143 146 138
0.332177 0.223532 1.066 143 146 138
0.333344 0.223532 1.066 144 147 139
0.334197 0.223323 1.065 143 146 138
0.335048 0.223113 1.064 137 140 132
0.335896 0.222903 1.063 137 140 132
0.33706 0.222903 1.063 137 140 132
0.337905 0.222694 1.062 139 142 134
0.339387 0.222903 1.063 139 146 137
0.34055 0.222903 1.063 118 125 116
0.341714 0.222903 1.063 92 98 91
0.342878 0.222903 1.063 70 76 69
0.344365 0.223113 1.064 65 70 66
0.345529 0.223113 1.064 88 93 89
0.347346 0.223532 1.066 104 102 103
0.34884 0.223742 1.067 107 105 106
0.350336 0.223952 1.068 108 108 108
0.265972 0.246622 1.17 149 151 145
0.266796 0.2462 1.168 157 159 153
0.267845 0.24599 1.167 163 164 156
0.268661 0.245568 1.165 164 165 157
0.269704 0.245357 1.164 168 167 159
0.270513 0.244936 1.162 170 169 161
0.271317 0.244514 1.16 165 164 156
0.272352 0.244303 1.159 168 167 159
0.273148 0.243882 1.157 171 167 160
0.27394 0.24346 1.155 170 166 159
0.274966 0.243249 1.154 170 166 159
0.27599 0.243039 1.153 168 164 157
0.276771 0.242617 1.151 165 163 157
0.27779 0.242406 1.15 171 169 163
0.278806 0.242195 1.149 168 166 160
0.279576 0.241774 1.147 169 167 161
0.280587 0.241563 1.146 163 161 155
0.281595 0.241352 1.145 163 161 155
0.282601 0.241142 1.144 147 145 139
0.283605 0.240931 1.143 158 156 150
0.284358 0.240509 1.141 156 156 150
0.285357 0.240298 1.14 154 154 148
0.286353 0.240088 1.139 133 133 133
0.287347 0.239877 1.138 142 142 142
0.288339 0.239666 1.137 128 132 131
0.289584 0.239666 1.137 130 134 133
0.290573 0.239455 1.136 135 139 138
0.291559 0.239244 1.135 136 140 139
0.292802 0.239244 1.135 136 140 139
0.294044 0.239244 1.135 137 141 140
0.295026 0.239034 1.134 140 145 141
0.296268 0.239034 1.134 140 145 141
0.297509 0.239034 1.134 139 144 140
0.29875 0.239034 1.134 140 145 141
0.299727 0.238823 1.133 141 146 142
0.300967 0.238823 1.133 144 149 145
0.302207 0.238823 1.133 136 142 135
0.302912 0.238401 1.131 140 146 139
0.303881 0.23819 1.13 144 150 143
0.304848 0.23798 1.129 143 149 142
0.305541 0.237558 1.127 142 144 138
0.306503 0.237347 1.126 152 154 148
0.307189 0.236926 1.124 148 154 147
0.30787 0.236504 1.122 147 153 146
0.308547 0.236083 1.12 148 154 147
0.30922 0.235661 1.118 149 155 148
0.309333 0.234818 1.114 149 155 148
0.309716 0.234186 1.111 149 155 148
0.310093 0.233553 1.108 148 154 147
0.310463 0.232921 1.105 148 154 147
0.311108 0.232499 1.103 147 153 146
0.311466 0.231867 1.1 148 154 147
0.311817 0.231234 1.097 148 155 146
0.312162 0.230602 1.094 149 156 147
0.312787 0.230181 1.092 153 156 148
0.313407 0.229759 1.09 159 162 154
0.314311 0.229548 1.089 174 175 167
0.314924 0.229127 1.087 146 147 139
0.316114 0.229127 1.087 113 114 106
0.31672 0.228705 1.085 116 117 109
0.317615 0.228494 1.084 151 154 146
0.318801 0.228494 1.084 144 147 139
0.319692 0.228283 1.083 137 144 135
0.320285 0.227862 1.081 144 151 142
0.321469 0.227862 1.081 143 149 142
0.322055 0.22744 1.079 144 150 143
0.322936 0.22723 1.078 146 151 147
0.323816 0.227019 1.077 148 153 149
0.324391 0.226597 1.075 144 150 143
0.325265 0.226386 1.074 143 149 142
0.326137 0.226176 1.073 143 149 142
0.327006 0.225965 1.072 143 149 142
0.327873 0.225754 1.071 142 148 141
0.328738 0.225543 1.07 143 149 142
0.329601 0.225332 1.069 143 149 142
0.330771 0.225332 1.069 143 149 142
0.331942 0.225332 1.069 140 147 138
0.3328 0.225122 1.068 139 146 137
0.333656 0.224911 1.067 144 147 139
0.334511 0.2247 1.066 142 145 137
0.335677 0.2247 1.066 137 140 132
0.336528 0.224489 1.065 137 140 132
0.337377 0.224278 1.064 135 138 130
0.338542 0.224278 1.064 135 138 130
0.339706 0.224278 1.064 127 134 125
0.340871 0.224278 1.064 100 107 98
0.342357 0.224489 1.065 92 98 91
0.343523 0.224489 1.065 86 92 85
0.345012 0.2247 1.066 87 92 88
0.346179 0.2247 1.066 108 113 109
0.347997 0.225122 1.068 102 107 110
0.349493 0.225332 1.069 100 105 108
0.35132 0.225754 1.071 100 106 106
0.269241 0.246209 1.162 155 156 148
0.270047 0.245785 1.16 162 163 155
0.271083 0.245573 1.159 160 161 153
0.272117 0.245361 1.158 166 167 159
0.273148 0.245149 1.157 175 174 166
0.274177 0.244937 1.156 175 174 166
0.275205 0.244725 1.155 169 168 160
0.276229 0.244513 1.154 170 169 161
0.277252 0.244302 1.153 163 162 154
0.278273 0.24409 1.152 164 163 155
0.279291 0.243878 1.151 170 171 163
0.280307 0.243666 1.15 168 169 161
0.281566 0.243666 1.15 160 160 154
0.282579 0.243454 1.149 163 163 157
0.283589 0.243242 1.148 153 153 147
0.289354 0.241759 1.141 130 134 133
0.290093 0.241335 1.139 129 133 132
0.291084 0.241123 1.138 127 133 132
0.292073 0.240911 1.137 130 136 135
0.293318 0.240911 1.137 132 138 137
0.294562 0.240911 1.137 133 139 138
0.295547 0.2407 1.136 135 141 140
0.296529 0.240488 1.135 137 143 142
0.297771 0.240488 1.135 137 144 140
0.29875 0.240276 1.134 138 145 141
0.299991 0.240276 1.134 139 146 142
0.300967 0.240064 1.133 139 146 142
0.302207 0.240064 1.133 139 146 142
0.30318 0.239852 1.132 139 146 142
0.303881 0.239428 1.13 136 142 135
0.304848 0.239216 1.129 136 142 135
0.305812 0.239004 1.128 139 141 135
0.306503 0.238581 1.126 152 154 148
0.307462 0.238369 1.125 148 154 147
0.308145 0.237945 1.123 148 154 147
0.308823 0.237521 1.121 146 154 147
0.30922 0.236886 1.118 146 154 147
0.309611 0.23625 1.115 146 154 147
0.310274 0.235826 1.113 146 154 147
0.310652 0.235191 1.11 146 154 147
0.311306 0.234767 1.108 145 153 146
0.311672 0.234131 1.105 145 153 146
0.312032 0.233496 1.102 146 154 147
0.312386 0.23286 1.099 152 159 150
0.313018 0.232436 1.097 155 162 153
0.313646 0.232012 1.095 156 163 154
0.31427 0.231589 1.093 165 172 163
0.315177 0.231377 1.092 153 153 153
0.315793 0.230953 1.09 110 110 110
0.316695 0.230741 1.089 115 118 110
0.317304 0.230317 1.087 138 141 133
0.318494 0.230317 1.087 139 147 135
0.319389 0.230105 1.086 140 148 136
0.319988 0.229682 1.084 141 149 137
0.321174 0.229682 1.084 144 152 140
0.321766 0.229258 1.082 143 151 139
0.322652 0.229046 1.081 144 152 140
0.323536 0.228834 1.08 150 156 149
0.324417 0.228622 1.079 149 155 148
0.324693 0.227987 1.076 144 150 143
0.325871 0.227987 1.076 144 150 143
0.326441 0.227563 1.074 144 150 143
0.327616 0.227563 1.074 142 148 141
0.328179 0.227139 1.072 142 148 141
0.329046 0.226927 1.071 143 149 142
0.330218 0.226927 1.071 143 149 142
0.33139 0.226927 1.071 144 150 143
0.332252 0.226715 1.07 140 147 138
0.333112 0.226503 1.069 137 144 135
0.334282 0.226503 1.069 137 144 135
0.335138 0.226291 1.068 135 142 133
0.336307 0.226291 1.068 137 140 132
0.33716 0.22608 1.067 136 139 131
0.338328 0.22608 1.067 136 139 131
0.339178 0.225868 1.066 132 135 127
0.340345 0.225868 1.066 125 131 124
0.341512 0.225868 1.066 115 121 114
0.343 0.22608 1.067 105 110 106
0.344168 0.22608 1.067 94 99 95
0.345983 0.226503 1.069 86 92 91
0.347478 0.226715 1.07 110 116 115
0.348975 0.226927 1.071 100 110 112
0.350474 0.227139 1.072 98 108 110
0.274966 0.245778 1.154 150 151 148
0.276229 0.245778 1.154 153 154 151
0.277493 0.245778 1.154 146 148 142
0.292587 0.242583 1.139 126 132 131
0.293318 0.242157 1.137 125 131 130
0.294562 0.242157 1.137 130 136 135
0.295547 0.241944 1.136 133 142 140
0.296529 0.241731 1.135 133 142 140
0.297771 0.241731 1.135 135 144 142
0.29875 0.241518 1.134 136 145 143
0.299727 0.241305 1.133 136 146 141
0.300967 0.241305 1.133 137 147 142
0.301674 0.240879 1.131 140 147 143
0.302912 0.240879 1.131 140 147 143
0.303612 0.240453 1.129 140 145 141
0.304578 0.24024 1.128 139 144 140
0.305541 0.240027 1.127 143 149 142
0.306231 0.239601 1.125 148 154 147
0.307189 0.239388 1.124 148 154 147
0.30787 0.238962 1.122 148 154 147
0.308823 0.238749 1.121 146 154 147
0.30922 0.23811 1.118 144 152 145
0.309889 0.237684 1.116 145 153 146
0.310553 0.237258 1.114 146 154 147
0.310932 0.236619 1.111 146 154 147
0.311587 0.236193 1.109 146 154 147
0.311954 0.235555 1.106 146 154 147
0.312599 0.235129 1.104 148 156 149
0.312954 0.23449 1.101 155 163 156
0.313589 0.234064 1.099 161 169 162
0.314219 0.233638 1.097 162 166 165
0.314845 0.233212 1.095 142 146 145
0.315755 0.232999 1.094 106 110 109
0.316373 0.232573 1.092 113 117 116
0.317568 0.232573 1.092 137 143 136
0.318179 0.232147 1.09 141 147 140
0.31908 0.231934 1.089 137 144 135
0.319977 0.231721 1.088 139 146 137
0.320873 0.231508 1.087 142 149 140
0.32147 0.231082 1.085 143 150 141
0.322361 0.230869 1.084 143 150 141
0.32295 0.230443 1.082 143 150 141
0.323835 0.23023 1.081 149 156 147
0.324417 0.229804 1.079 143 150 141
0.325296 0.229591 1.078 142 149 140
0.325871 0.229165 1.076 143 150 141
0.327048 0.229165 1.076 143 149 142
0.327921 0.228952 1.075 143 149 142
0.328792 0.228739 1.074 139 147 140
0.32966 0.228526 1.073 140 148 141
0.330526 0.228313 1.072 140 148 141
0.3317 0.228313 1.072 138 146 139
0.332563 0.2281 1.071 135 143 136
0.333735 0.2281 1.071 134 142 135
0.334907 0.2281 1.071 136 143 134
0.335766 0.227887 1.07 135 142 133
0.336937 0.227887 1.07 134 141 132
0.337792 0.227674 1.069 132 139 130
0.338962 0.227674 1.069 135 137 131
0.340132 0.227674 1.069 132 134 128
0.341303 0.227674 1.069 120 125 121
0.342473 0.227674 1.069 122 127 123
0.343643 0.227674 1.069 110 116 115
0.345136 0.227887 1.07 109 115 114
0.34663 0.2281 1.071 100 111 109
0.348127 0.228313 1.072 102 113 111
0.349953 0.228739 1.074 101 116 117
0.351455 0.228952 1.075 92 107 108
0.293318 0.243402 1.137 123 129 128
0.294562 0.243402 1.137 128 134 133
0.295287 0.242974 1.135 123 134 132
0.296268 0.24276 1.134 130 141 139
0.297247 0.242546 1.133 136 147 145
0.298487 0.242546 1.133 131 142 140
0.299462 0.242332 1.132 135 145 140
0.30017 0.241904 1.13 136 146 141
0.301407 0.241904 1.13 137 147 142
0.302376 0.24169 1.129 138 148 143
0.303343 0.241476 1.128 139 146 142
0.304038 0.241047 1.126 139 146 142
0.304999 0.240833 1.125 141 149 142
0.305958 0.240619 1.124 145 153 146
0.306642 0.240191 1.122 145 153 146
0.307596 0.239977 1.121 146 154 147
0.308272 0.239549 1.119 146 154 147
0.30922 0.239335 1.118 141 149 142
0.309611 0.238693 1.115 145 153 146
0.310274 0.238265 1.113 146 154 147
0.310932 0.237836 1.111 146 154 147
0.311587 0.237408 1.109 147 155 148
0.312518 0.237194 1.108 147 155 148
0.312882 0.236552 1.105 148 156 149
0.313523 0.236124 1.103 147 154 150
0.314159 0.235696 1.101 147 154 150
0.314792 0.235267 1.099 131 136 139
0.315707 0.235053 1.098 104 109 112
0.31662 0.234839 1.097 117 122 125
0.317242 0.234411 1.095 128 133 136
0.31815 0.234197 1.094 132 137 133
0.318763 0.233769 1.092 134 139 135
0.319666 0.233555 1.091 136 143 134
0.320566 0.233341 1.09 136 143 134
0.321464 0.233127 1.089 142 149 140
0.322063 0.232699 1.087 142 149 140
