ply
format ascii 1.0
comment Created by Open3D
element vertex 1384
property double x
property double y
property double z
property uchar red
property uchar green
property uchar blue
end_header
-0.0151162 2.36525 10.46 147 156 155
-0.00366673 2.36525 10.46 148 157 156
0.00779023 2.36751 10.47 150 159 158
0.0192691 2.36977 10.48 151 160 159
0.0307405 2.36977 10.48 151 160 159
0.0422119 2.36977 10.48 150 156 155
0.0537858 2.37429 10.5 149 155 154
0.0652791 2.37429 10.5 148 154 153
0.0767724 2.37429 10.5 148 154 153
0.0882657 2.37429 10.5 149 155 154
0.099854 2.37655 10.51 150 156 155
0.111358 2.37655 10.51 148 157 155
0.122862 2.37655 10.51 148 157 155
0.134367 2.37655 10.51 147 156 154
0.145732 2.37429 10.5 147 156 154
0.157225 2.37429 10.5 148 157 155
0.168719 2.37429 10.5 147 156 154
0.18004 2.37203 10.49 146 155 153
0.191705 2.37429 10.5 146 155 153
0.203199 2.37429 10.5 146 155 153
0.214488 2.37203 10.49 146 155 153
0.226185 2.37429 10.5 146 155 153
0.237452 2.37203 10.49 147 156 154
0.248935 2.37203 10.49 147 156 154
0.260417 2.37203 10.49 145 154 152
0.271381 2.36751 10.47 149 153 152
1.5745 2.17304 9.61 150 150 151
1.58667 2.1753 9.62 146 146 147
1.60052 2.17983 9.64 143 147 147
1.61274 2.18209 9.65 146 150 150
1.62835 2.18887 9.68 142 151 150
1.64741 2.20018 9.73 142 151 150
0 0 0 140 148 150
1.69272 2.23184 9.87 142 150 152
1.71733 2.24993 9.95 142 150 152
1.74212 2.26802 10.03 143 151 153
1.76708 2.28611 10.11 143 152 151
1.78694 2.29741 10.16 144 153 152
1.80691 2.30872 10.21 143 152 151
1.82343 2.3155 10.24 143 152 151
1.8418 2.32455 10.28 144 153 152
1.85666 2.32907 10.3 144 153 152
1.86794 2.32907 10.3 143 152 151
1.87921 2.32907 10.3 143 152 151
1.88865 2.32681 10.29 141 152 151
1.89991 2.32681 10.29 141 152 151
1.91118 2.32681 10.29 142 153 152
1.92244 2.32681 10.29 143 154 153
1.93182 2.32455 10.28 143 154 153
1.94308 2.32455 10.28 140 151 150
1.95243 2.32228 10.27 138 149 148
1.96367 2.32228 10.27 145 156 155
1.97491 2.32228 10.27 140 151 150
1.98615 2.32228 10.27 141 152 151
1.99934 2.32455 10.28 143 154 153
2.01059 2.32455 10.28 143 154 153
2.02381 2.32681 10.29 142 153 152
2.03903 2.33133 10.31 138 149 148
2.0523 2.33359 10.32 140 151 150
2.0656 2.33585 10.33 143 154 153
2.07892 2.33811 10.34 140 151 150
2.09428 2.34264 10.36 141 152 151
2.10765 2.3449 10.37 141 152 151
2.12309 2.34942 10.39 141 152 151
2.13857 2.35394 10.41 142 153 152
2.1479 2.35168 10.4 145 156 155
2.15721 2.34942 10.39 142 153 152
2.16858 2.34942 10.39 138 149 148
2.17786 2.34716 10.38 140 149 148
2.18711 2.3449 10.37 143 152 151
2.19846 2.3449 10.37 143 152 151
2.20768 2.34264 10.36 143 152 151
2.21902 2.34264 10.36 140 151 150
2.22821 2.34037 10.35 141 152 151
2.23954 2.34037 10.35 142 153 152
2.25087 2.34037 10.35 137 148 147
2.26219 2.34037 10.35 137 148 147
2.27352 2.34037 10.35 137 148 147
2.28485 2.34037 10.35 137 148 147
2.29618 2.34037 10.35 140 151 150
2.30751 2.34037 10.35 140 151 150
2.31884 2.34037 10.35 138 149 148
2.33242 2.34264 10.36 138 149 148
2.34376 2.34264 10.36 138 149 148
2.35737 2.3449 10.37 141 152 151
2.36872 2.3449 10.37 141 152 151
2.38467 2.34942 10.39 140 150 152
2.39604 2.34942 10.39 140 150 152
2.40741 2.34942 10.39 141 152 151
2.42344 2.35394 10.41 140 151 150
2.43717 2.3562 10.42 140 151 149
2.44858 2.3562 10.42 143 154 152
2.45999 2.3562 10.42 147 156 154
2.47139 2.3562 10.42 153 162 160
2.4828 2.3562 10.42 152 156 155
2.4966 2.35846 10.43 136 140 139
2.50801 2.35846 10.43 119 119 119
-1.47139 2.51758 11.08 123 121 121
-1.45926 2.51758 11.08 113 117 117
-1.44714 2.51758 11.08 112 116 116
-1.43371 2.51531 11.07 114 114 115
-1.42031 2.51304 11.06 122 122 123
-1.40566 2.50849 11.04 121 121 122
-1.39231 2.50622 11.03 144 144 145
-1.37774 2.50168 11.01 147 150 153
-1.36196 2.49486 10.98 151 154 157
-1.3438 2.4835 10.93 166 170 170
-1.32696 2.47441 10.89 157 161 161
-1.309 2.46305 10.84 157 163 163
-1.29115 2.45169 10.79 164 170 170
-1.27341 2.44033 10.74 153 162 161
-1.25578 2.42897 10.69 154 163 162
-1.23826 2.4176 10.64 155 163 165
-1.22431 2.41306 10.62 154 162 164
-1.20926 2.40624 10.59 154 162 164
-1.19541 2.4017 10.57 154 162 164
-1.1816 2.39716 10.55 154 163 162
-1.16894 2.39488 10.54 153 162 161
-1.15631 2.39261 10.53 153 162 161
-1.14369 2.39034 10.52 154 163 162
-1.13218 2.39034 10.52 155 164 163
-1.1196 2.38807 10.51 153 162 161
-1.10704 2.38579 10.5 155 164 163
-1.09554 2.38579 10.5 157 166 165
-1.08405 2.38579 10.5 157 166 165
-1.07154 2.38352 10.49 157 166 165
-1.06005 2.38352 10.49 157 166 165
-1.04857 2.38352 10.49 154 163 162
-1.03709 2.38352 10.49 152 161 160
-1.02463 2.38125 10.48 155 164 163
-1.01412 2.38352 10.49 160 169 168
-1.0036 2.38579 10.5 158 167 166
-0.992105 2.38579 10.5 152 163 162
-0.981545 2.38807 10.51 153 164 163
-0.970964 2.39034 10.52 152 163 162
-0.960361 2.39261 10.53 152 163 162
-0.949736 2.39488 10.54 152 163 161
-0.939089 2.39716 10.55 153 164 162
-0.927541 2.39716 10.55 157 168 166
-0.915993 2.39716 10.55 157 168 166
-0.903588 2.39488 10.54 153 165 160
-0.891204 2.39261 10.53 143 155 150
-0.878843 2.39034 10.52 145 157 152
-0.867327 2.39034 10.52 155 167 162
-0.854999 2.38807 10.51 152 164 159
-0.842692 2.38579 10.5 156 168 163
-0.831199 2.38579 10.5 158 167 165
-0.818925 2.38352 10.49 159 168 166
-0.806673 2.38125 10.48 160 169 167
-0.79596 2.38352 10.49 159 168 166
-0.78373 2.38125 10.48 158 167 165
-0.772258 2.38125 10.48 157 166 164
-0.760787 2.38125 10.48 159 165 164
-0.749315 2.38125 10.48 160 166 165
-0.737844 2.38125 10.48 161 167 166
-0.72568 2.37898 10.47 160 166 165
-0.714901 2.38125 10.48 162 167 163
-0.70343 2.38125 10.48 162 167 163
-0.691958 2.38125 10.48 163 168 164
-0.680487 2.38125 10.48 164 169 165
-0.669016 2.38125 10.48 162 169 165
-0.657544 2.38125 10.48 161 168 164
-0.646073 2.38125 10.48 161 168 164
-0.633996 2.37898 10.47 161 168 164
-0.621941 2.37671 10.46 161 168 164
-0.610491 2.37671 10.46 159 166 162
-0.598469 2.37443 10.45 157 164 160
-0.58703 2.37443 10.45 157 164 160
-0.575041 2.37216 10.44 160 166 165
-0.563613 2.37216 10.44 164 170 169
-0.551657 2.36989 10.43 157 163 162
-0.539722 2.36762 10.42 157 163 162
-0.528316 2.36762 10.42 160 166 165
-0.516911 2.36762 10.42 160 166 165
-0.505505 2.36762 10.42 161 167 166
-0.494099 2.36762 10.42 161 167 166
-0.482694 2.36762 10.42 161 167 167
-0.471288 2.36762 10.42 162 168 168
-0.459882 2.36762 10.42 162 171 170
-0.448476 2.36762 10.42 154 163 162
-0.437071 2.36762 10.42 154 163 162
-0.425665 2.36762 10.42 155 164 163
-0.414259 2.36762 10.42 157 166 164
-0.40324 2.36989 10.43 157 166 164
-0.391823 2.36989 10.43 156 162 161
-0.380407 2.36989 10.43 156 162 161
-0.36899 2.36989 10.43 156 162 161
-0.357573 2.36989 10.43 156 162 161
-0.345825 2.36762 10.42 156 163 159
-0.334419 2.36762 10.42 156 163 159
-0.323013 2.36762 10.42 157 162 158
-0.311309 2.36534 10.41 157 162 158
-0.299338 2.3608 10.39 157 162 158
-0.287965 2.3608 10.39 157 162 158
-0.276326 2.35853 10.38 157 162 158
-0.264708 2.35626 10.37 157 162 158
-0.253357 2.35626 10.37 157 161 160
-0.24154 2.35171 10.35 157 161 160
-0.23021 2.35171 10.35 155 161 160
-0.218881 2.35171 10.35 153 159 158
-0.207552 2.35171 10.35 153 159 158
-0.196033 2.34944 10.34 152 158 157
-0.184715 2.34944 10.34 155 161 160
-0.173565 2.35171 10.35 154 160 159
-0.162236 2.35171 10.35 153 159 158
-0.150907 2.35171 10.35 155 161 160
-0.139847 2.35626 10.37 152 158 157
-0.128496 2.35626 10.37 154 160 159
-0.117371 2.3608 10.39 154 160 159
-0.105998 2.3608 10.39 155 161 160
-0.0947164 2.36307 10.4 154 163 161
-0.0834127 2.36534 10.41 139 148 146
-0.0720871 2.36762 10.42 151 160 158
-0.0606814 2.36762 10.42 147 156 154
-0.0493229 2.36989 10.43 146 155 153
-0.0379426 2.37216 10.44 147 156 154
-0.026515 2.37216 10.44 147 156 154
-0.0150873 2.37216 10.44 148 157 155
-0.00365971 2.37216 10.44 151 160 158
0.00776791 2.37216 10.44 148 157 155
0.0191955 2.37216 10.44 148 157 155
0.0306525 2.37443 10.45 150 159 157
0.0420911 2.37443 10.45 148 157 155
0.0535809 2.37671 10.46 147 156 154
0.0650304 2.37671 10.46 149 155 154
0.0764799 2.37671 10.46 150 156 155
0.0879294 2.37671 10.46 150 156 155
0.099474 2.37898 10.47 152 158 157
0.110934 2.37898 10.47 150 159 157
0.122395 2.37898 10.47 150 159 157
0.133983 2.38125 10.48 150 159 157
0.145316 2.37898 10.47 146 155 153
0.156776 2.37898 10.47 146 155 153
0.168076 2.37671 10.46 147 156 154
0.179697 2.37898 10.47 147 156 154
0.191158 2.37898 10.47 146 155 153
0.202618 2.37898 10.47 145 154 152
0.214079 2.37898 10.47 144 153 151
0.225539 2.37898 10.47 144 153 151
0.236773 2.37671 10.46 146 155 153
0.248223 2.37671 10.46 149 155 154
0.259672 2.37671 10.46 146 152 151
0.270603 2.37216 10.44 145 151 150
1.57212 2.19493 9.66 150 147 144
1.57777 2.18811 9.63 148 146 146
1.59161 2.19266 9.65 147 145 145
1.60716 2.19948 9.68 145 145 146
1.6211 2.20402 9.7 147 147 148
0 0 0 142 151 150
1.65757 2.22447 9.79 140 149 148
1.67681 2.23583 9.84 140 149 148
1.69958 2.25174 9.91 143 152 151
0 0 0 143 152 151
1.74386 2.28127 10.04 143 152 151
1.76533 2.29491 10.1 142 151 150
1.78518 2.30627 10.15 142 151 150
1.80337 2.31536 10.19 142 151 150
1.81809 2.3199 10.21 142 151 150
1.83464 2.32672 10.24 142 151 150
1.85125 2.33353 10.27 145 154 153
1.8625 2.33353 10.27 144 153 152
1.87374 2.33353 10.27 144 153 152
1.88498 2.33353 10.27 144 153 152
1.89622 2.33353 10.27 145 154 153
1.90561 2.33126 10.26 143 154 153
1.91684 2.33126 10.26 144 155 154
1.92807 2.33126 10.26 143 154 153
1.93741 2.32899 10.25 140 151 150
1.94673 2.32672 10.24 136 147 146
1.95793 2.32672 10.24 140 151 150
1.97107 2.32899 10.25 141 152 151
1.98229 2.32899 10.25 141 152 151
1.99545 2.33126 10.26 142 153 152
2.00668 2.33126 10.26 138 149 148
2.01988 2.33353 10.27 141 152 151
2.0331 2.33581 10.28 140 151 150
2.04634 2.33808 10.29 138 149 148
2.0596 2.34035 10.3 141 152 151
2.07289 2.34262 10.31 144 155 154
2.08821 2.34717 10.33 141 152 151
2.09952 2.34717 10.33 141 152 151
2.11492 2.35171 10.35 142 153 152
0 0 0 144 155 154
0 0 0 143 154 153
0 0 0 142 153 152
2.16023 2.35171 10.35 140 151 150
2.17156 2.35171 10.35 143 152 151
2.18078 2.34944 10.34 142 151 150
2.1921 2.34944 10.34 142 151 150
2.20342 2.34944 10.34 139 148 147
2.21259 2.34717 10.33 136 147 146
2.2239 2.34717 10.33 138 149 148
2.23521 2.34717 10.33 138 149 148
2.24652 2.34717 10.33 138 149 148
2.25782 2.34717 10.33 138 148 150
2.26913 2.34717 10.33 138 148 150
2.28044 2.34717 10.33 138 148 150
2.28953 2.3449 10.32 140 150 152
2.30082 2.3449 10.32 143 153 155
2.31212 2.3449 10.32 142 152 154
2.32567 2.34717 10.33 141 151 153
2.33697 2.34717 10.33 141 151 153
2.35055 2.34944 10.34 141 151 153
2.36187 2.34944 10.34 141 151 153
2.37549 2.35171 10.35 141 151 153
2.38681 2.35171 10.35 141 151 153
2.40046 2.35398 10.36 143 153 155
2.41413 2.35626 10.37 142 152 154
2.42782 2.35853 10.38 141 152 151
2.44153 2.3608 10.39 138 149 148
2.4529 2.3608 10.39 137 148 147
2.46428 2.3608 10.39 137 148 147
2.47565 2.3608 10.39 142 148 147
2.48942 2.36307 10.4 150 156 155
2.5008 2.36307 10.4 152 156 156
2.51218 2.36307 10.4 154 158 158
2.52357 2.36307 10.4 137 141 141
2.53251 2.3608 10.39 102 106 106
-1.46608 2.52059 11.04 119 118 115
-1.454 2.52059 11.04 118 119 116
-1.44191 2.52059 11.04 112 113 110
-1.42983 2.52059 11.04 116 116 116
-1.41646 2.5183 11.03 121 121 121
-1.40311 2.51602 11.02 109 113 113
-1.38853 2.51145 11 120 124 124
-1.37523 2.50917 10.99 129 132 135
-1.35948 2.50232 10.96 139 142 145
-1.34257 2.49319 10.92 161 166 169
-1.32574 2.48406 10.88 162 167 170
-1.309 2.47492 10.84 157 165 167
-1.29115 2.46351 10.79 160 168 170
-1.27341 2.45209 10.74 155 163 165
-1.25578 2.44068 10.69 155 163 165
-1.23943 2.43154 10.65 157 165 167
-1.22316 2.42241 10.61 154 162 164
-1.20926 2.41784 10.59 153 161 163
-1.19428 2.41099 10.56 154 162 164
-1.18048 2.40643 10.54 153 161 163
-1.16783 2.40415 10.53 154 162 164
-1.15521 2.40186 10.52 154 162 164
-1.1426 2.39958 10.51 153 161 163
-1.13002 2.3973 10.5 155 163 165
-1.11853 2.3973 10.5 154 162 164
-1.10598 2.39501 10.49 155 163 165
-1.09346 2.39273 10.48 157 165 167
-1.08199 2.39273 10.48 155 163 165
-1.06949 2.39045 10.47 155 163 165
-1.05702 2.38816 10.46 155 163 165
-1.04557 2.38816 10.46 154 162 164
-1.03412 2.38816 10.46 154 162 164
-1.02267 2.38816 10.46 157 165 167
-1.01026 2.38588 10.45 157 167 169
-0.999775 2.38816 10.46 156 166 168
-0.988325 2.38816 10.46 153 164 163
-0.976876 2.38816 10.46 155 166 165
-0.967272 2.39273 10.48 155 166 165
-0.955801 2.39273 10.48 153 164 163
-0.94523 2.39501 10.49 153 164 162
-0.934638 2.3973 10.5 155 166 164
-0.923145 2.3973 10.5 157 168 166
-0.911652 2.3973 10.5 157 168 166
-0.899301 2.39501 10.49 155 166 164
-0.886972 2.39273 10.48 150 161 159
-0.875501 2.39273 10.48 156 167 165
-0.863205 2.39045 10.47 155 166 164
-0.851745 2.39045 10.47 151 162 160
-0.839482 2.38816 10.46 153 164 162
-0.828032 2.38816 10.46 157 166 164
-0.815802 2.38588 10.45 159 168 166
-0.804363 2.38588 10.45 158 167 165
-0.792925 2.38588 10.45 159 168 166
-0.781486 2.38588 10.45 159 168 166
-0.770048 2.38588 10.45 158 167 165
-0.757883 2.3836 10.44 160 166 165
-0.746455 2.3836 10.44 160 166 165
-0.735028 2.3836 10.44 160 166 165
-0.7236 2.3836 10.44 159 165 164
-0.712173 2.3836 10.44 162 166 165
-0.700745 2.3836 10.44 163 167 166
-0.689317 2.3836 10.44 163 168 164
-0.67789 2.3836 10.44 163 168 164
-0.666462 2.3836 10.44 163 168 164
-0.655034 2.3836 10.44 163 168 164
-0.643607 2.3836 10.44 163 168 164
-0.630968 2.37903 10.42 163 168 164
-0.619562 2.37903 10.42 163 168 164
-0.608157 2.37903 10.42 162 167 163
-0.596751 2.37903 10.42 161 166 162
-0.584783 2.37675 10.41 161 166 162
-0.572838 2.37446 10.4 162 167 163
-0.560914 2.37218 10.39 163 168 164
-0.549541 2.37218 10.39 164 168 167
-0.538168 2.37218 10.39 159 163 162
-0.526795 2.37218 10.39 161 165 164
-0.515423 2.37218 10.39 163 167 166
-0.50405 2.37218 10.39 161 167 166
-0.492677 2.37218 10.39 161 167 166
-0.481304 2.37218 10.39 161 167 167
-0.469931 2.37218 10.39 162 168 168
-0.458558 2.37218 10.39 162 168 168
-0.447185 2.37218 10.39 161 167 167
-0.435812 2.37218 10.39 163 169 169
-0.424439 2.37218 10.39 161 167 167
-0.413464 2.37446 10.4 161 167 166
-0.402467 2.37675 10.41 160 166 165
-0.391072 2.37675 10.41 159 165 164
-0.379313 2.37446 10.4 159 165 164
-0.368282 2.37675 10.41 157 163 162
-0.356545 2.37446 10.4 157 163 162
-0.345161 2.37446 10.4 157 163 162
-0.333456 2.37218 10.39 157 163 162
-0.322083 2.37218 10.39 158 163 159
-0.310411 2.3699 10.38 157 162 158
-0.298761 2.36761 10.37 157 162 158
-0.287133 2.36533 10.36 157 162 158
-0.275527 2.36305 10.35 157 162 158
-0.263942 2.36077 10.34 157 162 158
-0.252624 2.36077 10.34 158 162 161
-0.241073 2.35848 10.33 158 162 161
-0.229766 2.35848 10.33 155 161 160
-0.218458 2.35848 10.33 154 160 159
-0.206951 2.3562 10.32 154 160 159
-0.195654 2.3562 10.32 154 160 159
-0.184358 2.3562 10.32 155 161 160
-0.173062 2.3562 10.32 155 161 160
-0.161922 2.35848 10.33 153 159 158
-0.150615 2.35848 10.33 148 154 153
-0.139443 2.36077 10.34 154 160 159
-0.128248 2.36305 10.35 154 160 159
-0.117032 2.36533 10.36 153 159 158
-0.105794 2.36761 10.37 155 161 160
-0.0945343 2.3699 10.38 152 161 159
-0.0832525 2.37218 10.39 146 155 153
-0.0718796 2.37218 10.39 147 156 154
-0.0605067 2.37218 10.39 147 156 154
-0.0492284 2.37675 10.41 147 156 155
-0.0378336 2.37675 10.41 147 156 155
-0.0264642 2.37903 10.42 147 156 155
-0.015044 2.37675 10.41 147 156 155
-0.0036492 2.37675 10.41 153 162 161
0.00774559 2.37675 10.41 151 160 159
0.0191588 2.37903 10.42 148 157 156
0.0305645 2.37903 10.42 148 157 156
0.0419702 2.37903 10.42 147 156 155
0.053376 2.37903 10.42 148 157 156
0.0647817 2.37903 10.42 147 156 155
0.0761874 2.37903 10.42 148 157 156
0.0875932 2.37903 10.42 148 157 155
0.0989989 2.37903 10.42 150 159 157
0.110511 2.38131 10.43 148 157 155
0.121927 2.38131 10.43 147 156 154
0.133472 2.3836 10.44 146 155 153
0.144899 2.3836 10.44 146 155 153
0.156327 2.3836 10.44 147 156 154
0.167755 2.3836 10.44 147 156 154
0.179182 2.3836 10.44 146 155 153
0.190793 2.38588 10.45 147 156 154
0.202231 2.38588 10.45 145 154 152
0.213465 2.3836 10.44 143 152 150
0.224893 2.3836 10.44 148 157 155
0.23632 2.3836 10.44 148 157 155
0.247748 2.3836 10.44 147 156 154
0.258927 2.38131 10.43 144 153 151
0.269826 2.37675 10.41 144 150 149
1.57212 2.20551 9.66 149 146 143
1.58269 2.20551 9.66 147 145 145
1.59656 2.21008 9.68 147 145 145
1.6138 2.21921 9.72 146 146 147
1.62945 2.22606 9.75 147 147 148
1.64685 2.23519 9.79 143 152 151
1.66773 2.24889 9.85 143 152 151
1.68533 2.25802 9.89 143 152 151
1.70644 2.27172 9.95 143 152 151
1.72769 2.28542 10.01 143 152 151
1.74733 2.29684 10.06 143 152 151
1.76708 2.30825 10.11 145 151 151
1.78167 2.31282 10.13 144 150 150
1.79806 2.31967 10.16 144 150 150
1.81453 2.32652 10.19 144 150 150
1.83106 2.33337 10.22 142 151 150
1.84585 2.33793 10.24 145 154 153
1.85706 2.33793 10.24 144 153 152
1.86826 2.33793 10.24 146 155 154
1.87947 2.33793 10.24 147 156 155
1.89068 2.33793 10.24 147 156 155
1.90003 2.33565 10.23 144 155 154
1.91123 2.33565 10.23 143 154 153
1.92055 2.33337 10.22 143 154 153
1.93174 2.33337 10.22 141 152 151
1.94292 2.33337 10.22 138 149 148
1.95411 2.33337 10.22 138 149 148
1.9653 2.33337 10.22 140 151 150
1.97648 2.33337 10.22 138 149 148
1.98962 2.33565 10.23 138 149 148
2.00277 2.33793 10.24 137 148 147
2.01594 2.34022 10.25 140 151 150
2.02914 2.3425 10.26 141 152 151
2.04236 2.34478 10.27 140 151 150
2.0556 2.34707 10.28 141 152 151
2.06887 2.34935 10.29 143 154 153
2.08013 2.34935 10.29 143 154 153
0 0 0 143 154 153
0 0 0 143 154 153
0 0 0 143 154 153
0 0 0 142 153 152
0 0 0 144 153 152
0 0 0 144 153 152
0 0 0 142 151 150
2.17656 2.3562 10.32 140 149 148
2.18574 2.35392 10.31 143 152 151
2.19916 2.3562 10.32 142 151 150
2.20831 2.35392 10.31 136 147 146
2.2196 2.35392 10.31 137 148 147
2.23088 2.35392 10.31 138 149 148
2.24217 2.35392 10.31 140 151 150
2.25345 2.35392 10.31 138 148 150
2.26474 2.35392 10.31 138 148 150
2.27381 2.35163 10.3 141 151 153
2.28287 2.34935 10.29 142 152 154
2.29413 2.34935 10.29 143 153 155
2.3054 2.34935 10.29 144 154 156
2.31666 2.34935 10.29 142 152 154
2.32792 2.34935 10.29 141 151 153
2.34146 2.35163 10.3 141 151 153
2.35274 2.35163 10.3 143 153 155
2.3663 2.35392 10.31 143 153 155
2.3799 2.3562 10.32 143 153 155
2.39119 2.3562 10.32 142 152 154
2.40715 2.36077 10.34 142 152 154
2.4208 2.36305 10.35 142 153 152
2.43213 2.36305 10.35 140 151 150
2.44582 2.36533 10.36 139 148 147
2.45953 2.36761 10.37 139 148 147
2.47088 2.36761 10.37 144 150 150
2.48223 2.36761 10.37 149 155 155
2.49359 2.36761 10.37 144 150 150
2.50494 2.36761 10.37 148 154 154
2.51629 2.36761 10.37 151 159 161
2.52764 2.36761 10.37 151 159 161
2.53654 2.36533 10.36 137 143 143
2.54788 2.36533 10.36 113 119 119
2.55922 2.36533 10.36 91 91 91
-1.45944 2.52121 10.99 117 117 111
-1.44873 2.5235 11 123 125 119
-1.43669 2.5235 11 117 119 113
-1.42335 2.52121 10.99 114 119 115
-1.41132 2.52121 10.99 114 119 115
-1.39802 2.51891 10.98 114 118 117
-1.386 2.51891 10.98 119 123 122
-1.37023 2.51203 10.95 118 124 124
-1.35452 2.50515 10.92 118 124 124
-1.34011 2.50056 10.9 127 132 135
-1.3233 2.49138 10.86 152 157 160
-1.30538 2.47991 10.81 150 158 160
-1.28876 2.47074 10.77 164 172 174
-1.27223 2.46156 10.73 158 165 169
-1.25578 2.45238 10.69 155 162 166
-1.23826 2.44091 10.64 154 161 165
-1.22316 2.43403 10.61 153 160 164
-1.20698 2.42486 10.57 151 158 162
-1.19315 2.42027 10.55 152 159 163
-1.17936 2.41568 10.53 152 160 162
-1.16672 2.41339 10.52 155 163 165
-1.15411 2.41109 10.51 155 163 165
-1.14152 2.4088 10.5 154 162 164
-1.13002 2.4088 10.5 155 163 165
-1.1164 2.40421 10.48 157 165 167
-1.10493 2.40421 10.48 155 163 165
-1.09241 2.40191 10.47 155 163 165
-1.07992 2.39962 10.46 155 163 165
-1.06847 2.39962 10.46 154 162 164
-1.05601 2.39733 10.45 155 163 165
-1.04457 2.39733 10.45 154 162 164
-1.03215 2.39503 10.44 154 162 164
-1.02072 2.39503 10.44 154 162 164
-1.00832 2.39274 10.43 155 163 165
-0.996907 2.39274 10.43 153 161 163
-0.985491 2.39274 10.43 153 164 163
-0.974074 2.39274 10.43 157 168 167
-0.96358 2.39503 10.44 157 168 167
-0.952153 2.39503 10.44 156 167 166
-0.940725 2.39503 10.44 156 167 166
-0.930188 2.39733 10.45 156 167 166
-0.919628 2.39962 10.46 157 168 166
-0.908179 2.39962 10.46 157 168 166
-0.896729 2.39962 10.46 156 167 165
-0.884433 2.39733 10.45 157 168 166
-0.872995 2.39733 10.45 159 170 168
-0.860732 2.39503 10.44 156 167 165
-0.849304 2.39503 10.44 153 164 162
-0.837876 2.39503 10.44 152 163 161
-0.825657 2.39274 10.43 157 166 164
-0.81346 2.39044 10.42 160 169 167
-0.802054 2.39044 10.42 160 169 167
-0.790648 2.39044 10.42 160 169 167
-0.779243 2.39044 10.42 158 167 165
-0.767837 2.39044 10.42 159 168 166
-0.756431 2.39044 10.42 163 169 168
-0.74431 2.38815 10.41 159 165 164
-0.732212 2.38586 10.4 157 163 162
-0.720135 2.38356 10.39 157 163 162
-0.709444 2.38586 10.4 162 166 165
-0.69806 2.38586 10.4 163 167 166
-0.686676 2.38586 10.4 163 168 164
-0.675292 2.38586 10.4 163 168 164
-0.66327 2.38356 10.39 163 168 164
-0.651897 2.38356 10.39 162 167 163
-0.640524 2.38356 10.39 161 165 164
-0.629152 2.38356 10.39 162 166 165
-0.617779 2.38356 10.39 163 167 166
-0.605822 2.38127 10.38 163 167 166
-0.593887 2.37897 10.37 162 166 165
-0.582536 2.37897 10.37 162 166 165
-0.571185 2.37897 10.37 162 166 165
-0.559295 2.37668 10.36 157 161 160
-0.547954 2.37668 10.36 171 175 174
-0.536614 2.37668 10.36 166 170 169
-0.525274 2.37668 10.36 162 166 165
-0.513934 2.37668 10.36 164 168 167
-0.503079 2.37897 10.37 161 167 166
-0.491728 2.37897 10.37 162 168 167
-0.480377 2.37897 10.37 164 170 169
-0.469026 2.37897 10.37 162 168 167
-0.457675 2.37897 10.37 162 168 167
-0.446755 2.38127 10.38 161 167 166
-0.435393 2.38127 10.38 148 154 153
-0.424031 2.38127 10.38 156 162 161
-0.412669 2.38127 10.38 162 168 167
-0.401694 2.38356 10.39 160 166 165
-0.390321 2.38356 10.39 159 165 164
-0.378948 2.38356 10.39 159 165 164
-0.367575 2.38356 10.39 159 165 164
-0.356202 2.38356 10.39 159 165 164
-0.344497 2.38127 10.38 161 167 166
-0.332814 2.37897 10.37 157 163 162
-0.321463 2.37897 10.37 159 164 160
-0.309514 2.37439 10.35 158 163 159
-0.298185 2.37439 10.35 157 162 158
-0.286579 2.37209 10.34 158 163 159
-0.274994 2.3698 10.33 158 163 159
-0.263687 2.3698 10.33 158 163 159
-0.251891 2.36521 10.31 159 163 162
-0.240606 2.36521 10.31 157 161 160
-0.229321 2.36521 10.31 156 160 159
-0.217824 2.36292 10.3 157 161 160
-0.20655 2.36292 10.3 155 161 160
-0.195086 2.36062 10.29 155 161 160
-0.184001 2.36292 10.3 154 160 159
-0.172726 2.36292 10.3 155 161 160
-0.161609 2.36521 10.31 154 160 159
-0.150323 2.36521 10.31 152 158 157
-0.139173 2.3675 10.32 155 161 160
-0.128001 2.3698 10.33 154 160 159
-0.116806 2.37209 10.34 152 158 157
-0.10559 2.37439 10.35 155 161 160
-0.0942611 2.37439 10.35 152 161 159
-0.0830121 2.37668 10.36 147 156 154
-0.0717412 2.37897 10.37 148 157 155
-0.0603902 2.37897 10.37 148 157 155
-0.0490865 2.38127 10.38 150 159 158
-0.0377245 2.38127 10.38 148 157 156
-0.026388 2.38356 10.39 147 156 155
-0.0150151 2.38356 10.39 143 152 151
-0.00364219 2.38356 10.39 146 155 154
0.00773071 2.38356 10.39 152 161 160
0.0191036 2.38356 10.39 151 162 161
0.0304765 2.38356 10.39 151 162 161
0.0418494 2.38356 10.39 148 159 158
0.0532223 2.38356 10.39 148 159 158
0.0645952 2.38356 10.39 148 157 156
0.075895 2.38127 10.38 146 155 154
0.0872569 2.38127 10.38 150 159 158
0.0986189 2.38127 10.38 145 154 153
0.110087 2.38356 10.39 147 156 154
0.12146 2.38356 10.39 150 159 157
0.13296 2.38586 10.4 148 157 155
0.144344 2.38586 10.4 146 155 153
0.155878 2.38815 10.41 148 157 155
0.167433 2.39044 10.42 146 155 153
0.179011 2.39274 10.43 146 155 153
0.190427 2.39274 10.43 148 157 155
0.201844 2.39274 10.43 148 157 155
0.213261 2.39274 10.43 150 159 157
0.224462 2.39044 10.42 150 159 157
0.235868 2.39044 10.42 148 157 155
0.246799 2.38586 10.4 148 157 155
0.257934 2.38356 10.39 146 155 153
0.268789 2.37897 10.37 148 157 155
1.56154 2.21609 9.66 149 146 143
1.57049 2.2138 9.65 150 147 144
1.58433 2.21839 9.67 148 146 146
1.60151 2.22756 9.71 149 147 147
1.61878 2.23674 9.75 147 147 147
1.63614 2.24592 9.79 149 149 149
1.65526 2.25739 9.84 144 150 149
1.6745 2.26886 9.89 141 147 146
1.69385 2.28033 9.94 144 150 149
1.7133 2.2918 9.99 145 151 150
1.73287 2.30327 10.04 141 147 146
1.7508 2.31245 10.08 144 150 149
1.76708 2.31933 10.11 145 151 150
1.78167 2.32392 10.13 145 151 150
1.79629 2.3285 10.15 145 151 150
1.81096 2.33309 10.17 145 151 150
1.82568 2.33768 10.19 143 152 150
1.84044 2.34227 10.21 144 153 151
1.85162 2.34227 10.21 143 152 151
1.86279 2.34227 10.21 145 154 153
1.87397 2.34227 10.21 144 155 154
1.88514 2.34227 10.21 143 154 153
1.89632 2.34227 10.21 143 154 153
1.90749 2.34227 10.21 142 153 152
1.91679 2.33997 10.2 141 152 151
1.92796 2.33997 10.2 142 153 152
1.93912 2.33997 10.2 141 152 151
1.95029 2.33997 10.2 138 149 148
1.96145 2.33997 10.2 140 151 150
1.97455 2.34227 10.21 138 149 148
1.98573 2.34227 10.21 137 148 147
1.99886 2.34456 10.22 142 153 152
2.01201 2.34686 10.23 138 149 148
2.02519 2.34915 10.24 140 151 150
2.0364 2.34915 10.24 141 152 151
2.0496 2.35144 10.25 140 151 150
2.06082 2.35144 10.25 142 153 152
2.07406 2.35374 10.26 144 155 154
2.08529 2.35374 10.26 143 154 153
0 0 0 142 153 152
0 0 0 144 153 152
0 0 0 144 153 152
0 0 0 143 152 151
0 0 0 145 154 153
2.15687 2.35833 10.28 146 155 154
2.16813 2.35833 10.28 146 155 154
2.17938 2.35833 10.28 145 154 153
2.19276 2.36062 10.29 142 151 150
2.20403 2.36062 10.29 137 148 147
2.21529 2.36062 10.29 140 151 150
2.22655 2.36062 10.29 141 152 151
2.23782 2.36062 10.29 142 153 152
2.24908 2.36062 10.29 140 151 150
2.26034 2.36062 10.29 141 152 151
2.2694 2.35833 10.28 142 152 154
2.28065 2.35833 10.28 142 152 154
2.2919 2.35833 10.28 142 152 154
2.30316 2.35833 10.28 143 153 155
2.31441 2.35833 10.28 142 152 154
2.3234 2.35603 10.27 142 152 154
2.33691 2.35833 10.28 142 152 154
2.34817 2.35833 10.28 143 153 155
2.35942 2.35833 10.28 144 154 156
2.37298 2.36062 10.29 143 153 155
2.38656 2.36292 10.3 142 152 154
2.39783 2.36292 10.3 142 152 154
2.41379 2.3675 10.32 145 154 153
2.42743 2.3698 10.33 144 153 152
2.43874 2.3698 10.33 143 152 151
2.45005 2.3698 10.33 143 152 151
2.46374 2.37209 10.34 144 150 150
2.47505 2.37209 10.34 148 154 154
2.48878 2.37439 10.35 148 154 154
2.49769 2.37209 10.34 142 148 148
2.51144 2.37439 10.35 140 149 148
2.51789 2.3698 10.33 147 156 155
2.5292 2.3698 10.33 157 166 165
2.5405 2.3698 10.33 158 167 166
2.55181 2.3698 10.33 154 158 157
2.56312 2.3698 10.33 133 137 136
2.57193 2.3675 10.32 103 103 103
-1.45546 2.52633 10.96 115 117 111
-1.44346 2.52633 10.96 117 119 113
-1.43277 2.52864 10.97 117 119 113
-1.41947 2.52633 10.96 114 119 115
-1.40747 2.52633 10.96 113 118 114
-1.3942 2.52403 10.95 111 117 116
-1.38221 2.52403 10.95 109 115 114
-1.36647 2.51711 10.92 111 117 116
-1.35204 2.5125 10.9 110 116 115
-1.33765 2.50789 10.88 112 117 120
-1.32087 2.49867 10.84 120 125 128
-1.30417 2.48945 10.8 135 140 143
-1.28756 2.48023 10.76 155 160 163
-1.26986 2.4687 10.71 171 179 181
-1.25461 2.46179 10.68 155 163 165
-1.23826 2.45257 10.64 153 160 164
-1.22201 2.44335 10.6 153 160 164
-1.20698 2.43643 10.57 152 159 163
-1.19201 2.42952 10.54 151 158 162
-1.17936 2.42721 10.53 151 158 162
-1.16672 2.42491 10.52 154 161 165
-1.15411 2.4226 10.51 157 164 168
-1.14152 2.4203 10.5 155 162 166
-1.12895 2.41799 10.49 155 162 166
-1.1164 2.41569 10.48 155 162 166
-1.10493 2.41569 10.48 155 162 166
-1.09241 2.41338 10.47 153 160 164
-1.07992 2.41108 10.46 148 156 158
-1.06745 2.40877 10.45 155 163 165
-1.05601 2.40877 10.45 155 163 165
-1.04357 2.40647 10.44 155 163 165
-1.03215 2.40647 10.44 154 162 164
-1.01974 2.40416 10.43 154 162 164
-1.00736 2.40186 10.42 157 165 167
-0.995952 2.40186 10.42 154 162 164
-0.983601 2.39955 10.41 155 163 165
-0.972206 2.39955 10.41 159 167 169
-0.960811 2.39955 10.41 160 169 168
-0.949417 2.39955 10.41 160 169 168
-0.938022 2.39955 10.41 159 168 167
-0.927517 2.40186 10.42 157 166 165
-0.916112 2.40186 10.42 156 167 165
-0.905574 2.40416 10.43 157 168 166
-0.8933 2.40186 10.42 157 168 166
-0.881894 2.40186 10.42 158 169 167
-0.871324 2.40416 10.43 159 170 168
-0.859083 2.40186 10.42 157 168 166
-0.847677 2.40186 10.42 155 166 164
-0.836271 2.40186 10.42 153 164 162
-0.824866 2.40186 10.42 158 167 165
-0.811899 2.39725 10.4 160 169 167
-0.800515 2.39725 10.4 161 170 168
-0.789131 2.39725 10.4 162 171 169
-0.776999 2.39494 10.39 160 166 165
-0.765626 2.39494 10.39 160 166 165
-0.753527 2.39264 10.38 163 169 168
-0.74145 2.39033 10.37 160 166 165
-0.730099 2.39033 10.37 162 166 165
-0.718055 2.38803 10.36 162 166 165
-0.706715 2.38803 10.36 163 168 164
-0.695375 2.38803 10.36 163 168 164
-0.684035 2.38803 10.36 163 168 164
-0.672695 2.38803 10.36 161 166 162
-0.661355 2.38803 10.36 162 167 163
-0.649388 2.38572 10.35 162 167 163
-0.638058 2.38572 10.35 161 165 164
-0.626729 2.38572 10.35 161 165 164
-0.6154 2.38572 10.35 162 166 165
-0.604071 2.38572 10.35 162 166 165
-0.592742 2.38572 10.35 161 165 164
-0.580851 2.38342 10.34 162 166 165
-0.569533 2.38342 10.34 162 166 165
-0.558215 2.38342 10.34 163 167 166
-0.546368 2.38111 10.33 166 170 169
-0.535061 2.38111 10.33 165 169 168
-0.52426 2.38342 10.34 163 167 166
-0.512942 2.38342 10.34 164 168 167
-0.501139 2.38111 10.33 162 168 167
-0.490306 2.38342 10.34 163 169 168
-0.478988 2.38342 10.34 162 168 167
-0.468122 2.38572 10.35 162 168 167
-0.456793 2.38572 10.35 161 167 166
-0.445894 2.38803 10.36 160 166 165
-0.434554 2.38803 10.36 160 166 165
-0.423622 2.39033 10.37 161 167 166
-0.412271 2.39033 10.37 161 167 166
-0.401307 2.39264 10.38 160 166 165
-0.389945 2.39264 10.38 160 166 165
-0.378583 2.39264 10.38 160 166 165
-0.367221 2.39264 10.38 160 166 165
-0.355516 2.39033 10.37 160 166 165
-0.344165 2.39033 10.37 161 167 166
-0.332493 2.38803 10.36 157 163 162
-0.320843 2.38572 10.35 157 163 162
-0.309514 2.38572 10.35 157 163 162
-0.297609 2.38111 10.33 157 163 162
-0.286025 2.37881 10.32 157 163 162
-0.274462 2.3765 10.31 159 163 162
-0.263177 2.3765 10.31 161 165 164
-0.251647 2.3742 10.3 159 163 162
-0.240139 2.37189 10.29 157 161 160
-0.228876 2.37189 10.29 156 160 159
-0.217612 2.37189 10.29 157 161 160
-0.206349 2.37189 10.29 157 161 160
-0.195086 2.37189 10.29 158 162 161
-0.183822 2.37189 10.29 156 160 159
-0.172559 2.37189 10.29 155 159 158
-0.161295 2.37189 10.29 156 160 159
-0.150178 2.3742 10.3 156 160 159
-0.139038 2.3765 10.31 155 161 160
-0.127753 2.3765 10.31 155 161 160
-0.11658 2.37881 10.32 153 159 158
-0.105386 2.38111 10.33 154 160 159
-0.0940789 2.38111 10.33 155 161 160
-0.0828518 2.38342 10.34 154 160 159
-0.0716028 2.38572 10.35 151 160 158
-0.0602737 2.38572 10.35 154 163 161
-0.0489446 2.38572 10.35 160 169 168
-0.0376155 2.38572 10.35 144 153 152
-0.0263118 2.38803 10.36 147 156 155
-0.0149717 2.38803 10.36 148 157 156
-0.00363167 2.38803 10.36 144 155 154
0.00770839 2.38803 10.36 149 160 159
0.0190484 2.38803 10.36 146 157 156
0.0303885 2.38803 10.36 146 157 156
0.0417286 2.38803 10.36 148 159 158
0.0530174 2.38572 10.35 149 160 159
0.0643465 2.38572 10.35 150 161 160
0.0756756 2.38572 10.35 153 164 163
0.0870047 2.38572 10.35 160 169 167
0.0983339 2.38572 10.35 143 152 150
0.109663 2.38572 10.35 142 148 147
0.121109 2.38803 10.36 153 159 158
0.132577 2.39033 10.37 152 158 157
0.144067 2.39264 10.38 145 151 150
0.155578 2.39494 10.39 147 153 152
0.167112 2.39725 10.4 149 155 154
0.178667 2.39955 10.41 149 155 154
0.190245 2.40186 10.42 150 156 155
0.201651 2.40186 10.42 150 156 155
0.212852 2.39955 10.41 149 155 154
0.224031 2.39725 10.4 148 154 153
0.235189 2.39494 10.39 149 155 154
0.246087 2.39033 10.37 147 156 154
0.25719 2.38803 10.36 146 155 153
0.268011 2.38342 10.34 148 157 155
1.55831 2.22206 9.64 150 147 144
1.57049 2.22437 9.65 148 145 142
1.5876 2.23359 9.69 146 144 144
1.60481 2.24281 9.73 151 149 149
1.62376 2.25433 9.78 150 150 151
1.64115 2.26356 9.82 151 151 152
1.66199 2.27739 9.88 142 148 148
1.68297 2.29122 9.94 140 146 146
1.70237 2.30274 9.99 144 150 149
1.72016 2.31196 10.03 147 153 152
1.73977 2.32349 10.08 146 152 151
1.75428 2.3281 10.1 145 151 150
1.76883 2.33271 10.12 145 151 150
1.78518 2.33962 10.15 146 152 151
1.79806 2.34193 10.16 145 151 150
1.81096 2.34423 10.17 145 151 150
1.82389 2.34654 10.18 144 150 149
1.83683 2.34884 10.19 144 150 149
1.8498 2.35115 10.2 143 152 150
1.86097 2.35115 10.2 143 152 150
1.87213 2.35115 10.2 142 153 151
1.88145 2.34884 10.19 142 153 151
1.8926 2.34884 10.19 142 153 152
1.90376 2.34884 10.19 141 152 151
1.91303 2.34654 10.18 141 152 151
1.92418 2.34654 10.18 142 153 152
1.93532 2.34654 10.18 141 152 151
1.94646 2.34654 10.18 140 151 150
1.9576 2.34654 10.18 141 152 151
1.96875 2.34654 10.18 140 151 150
1.97989 2.34654 10.18 140 151 150
1.99299 2.34884 10.19 146 157 156
2.00611 2.35115 10.2 138 149 148
2.01728 2.35115 10.2 140 151 150
2.03043 2.35345 10.21 141 152 151
2.0416 2.35345 10.21 140 151 150
2.05278 2.35345 10.21 141 152 151
2.06598 2.35576 10.22 142 153 152
2.07716 2.35576 10.22 142 153 152
2.08835 2.35576 10.22 142 153 152
0 0 0 144 153 152
0 0 0 144 153 152
0 0 0 143 152 151
2.13519 2.35806 10.23 144 153 152
2.14848 2.36037 10.24 145 154 153
2.1618 2.36267 10.25 144 153 152
2.17514 2.36498 10.26 143 152 151
2.18637 2.36498 10.26 140 149 148
2.1976 2.36498 10.26 143 152 151
2.21098 2.36728 10.27 144 153 152
2.22223 2.36728 10.27 142 153 152
2.23564 2.36959 10.28 142 153 152
2.24689 2.36959 10.28 142 153 152
2.25815 2.36959 10.28 141 152 151
2.26498 2.36498 10.26 142 152 154
2.27621 2.36498 10.26 143 153 155
2.28745 2.36498 10.26 143 153 155
2.29868 2.36498 10.26 142 152 154
2.30991 2.36498 10.26 143 153 155
2.31888 2.36267 10.25 144 154 156
2.33009 2.36267 10.25 143 153 155
2.34131 2.36267 10.25 142 152 154
2.35253 2.36267 10.25 142 152 154
2.36606 2.36498 10.26 142 152 154
2.37961 2.36728 10.27 145 153 155
2.39318 2.36959 10.28 145 153 155
2.40443 2.36959 10.28 145 154 153
2.41803 2.37189 10.29 146 155 154
2.4293 2.37189 10.29 146 155 154
2.44293 2.3742 10.3 145 154 153
2.45659 2.3765 10.31 144 153 152
2.46787 2.3765 10.31 145 154 153
2.47916 2.3765 10.31 144 153 152
2.49044 2.3765 10.31 142 151 150
2.50173 2.3765 10.31 143 152 151
2.51301 2.3765 10.31 144 153 152
2.52185 2.3742 10.3 143 152 151
2.53313 2.3742 10.3 142 151 150
2.5444 2.3742 10.3 143 152 151
2.55567 2.3742 10.3 148 157 156
2.56446 2.37189 10.29 153 159 158
2.57572 2.37189 10.29 140 146 145
2.58447 2.36959 10.28 116 123 119
-1.45015 2.52907 10.92 121 123 117
-1.43819 2.52907 10.92 112 114 108
-1.42624 2.52907 10.92 114 116 110
-1.41429 2.52907 10.92 112 117 113
-1.40233 2.52907 10.92 113 118 114
-1.38911 2.52676 10.91 113 118 114
-1.3759 2.52444 10.9 113 118 114
-1.36272 2.52212 10.89 113 119 118
-1.34832 2.51749 10.87 116 122 121
-1.33273 2.51054 10.84 114 120 119
-1.31721 2.5036 10.81 114 120 119
-1.30176 2.49665 10.78 121 124 127
-1.28517 2.48738 10.74 118 121 124
-1.26867 2.47812 10.7 151 154 157
-1.25226 2.46886 10.66 170 173 176
-1.2371 2.46191 10.63 153 161 163
-1.22201 2.45496 10.6 158 166 168
-1.20698 2.44801 10.57 152 160 162
-1.19201 2.44106 10.54 151 159 161
-1.17824 2.43643 10.52 151 158 162
-1.16672 2.43643 10.52 152 159 163
-1.15301 2.4318 10.5 152 159 163
-1.14152 2.4318 10.5 154 161 165
-1.12787 2.42717 10.48 155 162 166
-1.1164 2.42717 10.48 155 162 166
-1.10387 2.42485 10.47 155 162 166
-1.09137 2.42254 10.46 157 164 168
-1.07992 2.42254 10.46 158 166 168
-1.06745 2.42022 10.45 158 166 168
-1.055 2.4179 10.44 157 165 167
-1.04357 2.4179 10.44 157 165 167
-1.03017 2.41327 10.42 157 165 167
-1.01876 2.41327 10.42 155 163 165
-1.00639 2.41096 10.41 155 163 165
-0.994996 2.41096 10.41 158 166 168
-0.981711 2.40632 10.39 158 166 168
-0.970338 2.40632 10.39 158 166 168
-0.958966 2.40632 10.39 157 166 165
-0.947593 2.40632 10.39 157 166 165
-0.93622 2.40632 10.39 155 164 162
-0.924847 2.40632 10.39 157 166 164
-0.914353 2.40864 10.4 156 167 165
-0.902969 2.40864 10.4 157 168 166
-0.891585 2.40864 10.4 157 168 166
-0.880202 2.40864 10.4 157 168 166
-0.869653 2.41096 10.41 153 164 162
-0.858258 2.41096 10.41 155 166 164
-0.846864 2.41096 10.41 159 168 166
-0.835469 2.41096 10.41 160 169 167
-0.822491 2.40632 10.39 159 168 166
-0.811118 2.40632 10.39 159 168 166
-0.799745 2.40632 10.39 161 170 168
-0.786855 2.40169 10.37 169 178 176
-0.775504 2.40169 10.37 163 169 168
-0.763416 2.39938 10.36 160 166 165
-0.75135 2.39706 10.35 163 169 168
-0.740021 2.39706 10.35 161 167 166
-0.727987 2.39474 10.34 161 167 166
-0.715976 2.39243 10.33 161 167 166
-0.704669 2.39243 10.33 163 168 164
-0.69269 2.39011 10.32 164 169 165
-0.681394 2.39011 10.32 164 169 165
-0.670098 2.39011 10.32 163 168 164
-0.658802 2.39011 10.32 163 168 164
-0.646878 2.3878 10.31 163 168 164
-0.635593 2.3878 10.31 162 167 163
-0.624307 2.3878 10.31 162 167 163
-0.613022 2.3878 10.31 161 166 162
-0.601737 2.3878 10.31 161 166 162
-0.590451 2.3878 10.31 161 166 162
-0.579166 2.3878 10.31 163 168 164
-0.567881 2.3878 10.31 164 168 167
-0.556595 2.3878 10.31 164 168 167
-0.54531 2.3878 10.31 164 168 167
-0.534025 2.3878 10.31 163 167 166
-0.522739 2.3878 10.31 163 167 166
-0.511454 2.3878 10.31 163 167 166
-0.500169 2.3878 10.31 163 169 168
-0.488883 2.3878 10.31 163 169 168
-0.478061 2.39011 10.32 162 168 167
-0.467217 2.39243 10.33 161 167 166
-0.45591 2.39243 10.33 160 166 165
-0.445033 2.39474 10.34 160 166 165
-0.434134 2.39706 10.35 160 166 166
-0.422805 2.39706 10.35 159 165 165
-0.411874 2.39938 10.36 160 166 166
-0.40092 2.40169 10.37 160 166 166
-0.389569 2.40169 10.37 160 166 166
-0.378218 2.40169 10.37 161 167 167
-0.366867 2.40169 10.37 161 167 166
-0.355516 2.40169 10.37 159 165 164
-0.343833 2.39938 10.36 159 165 164
-0.332172 2.39706 10.35 156 162 161
-0.320843 2.39706 10.35 156 162 161
-0.308916 2.39243 10.33 157 163 162
-0.297321 2.39011 10.32 157 163 162
-0.285747 2.3878 10.31 156 162 161
-0.274196 2.38548 10.3 157 163 162
-0.262666 2.38316 10.29 157 163 162
-0.251403 2.38316 10.29 157 162 158
-0.239906 2.38085 10.28 156 161 157
-0.228653 2.38085 10.28 156 161 157
-0.217401 2.38085 10.28 157 162 158
-0.206148 2.38085 10.28 156 161 157
-0.194896 2.38085 10.28 157 162 158
-0.183643 2.38085 10.28 155 160 156
-0.172391 2.38085 10.28 155 160 156
-0.161138 2.38085 10.28 156 160 159
-0.150032 2.38316 10.29 157 161 160
-0.138768 2.38316 10.29 157 161 160
-0.127505 2.38316 10.29 156 160 159
-0.116354 2.38548 10.3 154 160 159
-0.105182 2.3878 10.31 154 160 159
-0.0938968 2.3878 10.31 155 161 160
-0.0826916 2.39011 10.32 155 161 160
-0.0714645 2.39243 10.33 153 162 160
-0.0601573 2.39243 10.33 154 163 161
-0.04885 2.39243 10.33 155 164 162
-0.0375428 2.39243 10.33 158 167 165
-0.026261 2.39474 10.34 150 159 158
-0.0149284 2.39243 10.33 151 160 159
-0.00362466 2.39474 10.34 151 160 159
0.00768607 2.39243 10.33 150 159 158
0.0190117 2.39474 10.34 146 157 156
0.0303298 2.39474 10.34 145 156 155
0.0416077 2.39243 10.33 146 157 156
0.0529149 2.39243 10.33 148 159 158
0.0642222 2.39243 10.33 149 160 159
0.0754563 2.39011 10.32 148 159 158
0.0868366 2.39243 10.33 151 160 158
0.0981438 2.39243 10.33 150 159 157
0.109451 2.39243 10.33 142 151 149
0.120758 2.39243 10.33 151 160 158
0.132321 2.39706 10.35 147 156 154
0.143789 2.39938 10.36 143 152 150
0.155279 2.40169 10.37 145 154 152
0.16663 2.40169 10.37 146 155 153
0.178324 2.40632 10.39 148 157 155
0.189697 2.40632 10.39 148 157 155
0.20107 2.40632 10.39 150 156 156
0.212443 2.40632 10.39 149 155 155
0.2236 2.40401 10.38 148 154 154
0.234736 2.40169 10.37 148 154 154
0.245612 2.39706 10.35 148 154 154
0.256445 2.39243 10.33 148 154 154
0.267234 2.3878 10.31 147 153 153
1.54455 2.22799 9.62 151 148 145
1.55508 2.22799 9.62 151 147 147
1.57212 2.23726 9.66 150 146 146
1.58924 2.24652 9.7 148 146 146
1.60976 2.26042 9.76 149 147 147
1.62874 2.272 9.81 147 147 148
1.64784 2.28358 9.86 152 152 153
1.66872 2.29747 9.92 146 150 149
1.68974 2.31137 9.98 143 147 146
1.70918 2.32295 10.03 144 150 149
1.72531 2.3299 10.06 147 153 152
1.7415 2.33684 10.09 147 153 152
1.75775 2.34379 10.12 145 151 150
1.77233 2.34842 10.14 145 151 150
1.78694 2.35306 10.16 144 150 149
1.79983 2.35537 10.17 142 148 147
1.81275 2.35769 10.18 144 150 149
1.82568 2.36 10.19 144 150 149
1.83864 2.36232 10.2 144 150 149
1.8498 2.36232 10.2 143 152 150
1.85914 2.36 10.19 143 152 150
1.8703 2.36 10.19 141 152 150
1.88145 2.36 10.19 142 153 151
1.89075 2.35769 10.18 142 153 151
1.90189 2.35769 10.18 142 153 151
1.91115 2.35537 10.17 141 152 150
1.9204 2.35306 10.16 140 151 149
1.93152 2.35306 10.16 141 152 150
1.94264 2.35306 10.16 142 153 151
1.95376 2.35306 10.16 142 153 151
1.96488 2.35306 10.16 141 152 150
1.976 2.35306 10.16 140 151 150
1.98712 2.35306 10.16 140 151 150
2.00021 2.35537 10.17 138 149 148
2.01332 2.35769 10.18 141 152 151
2.02446 2.35769 10.18 141 152 151
2.03561 2.35769 10.18 141 152 151
2.04675 2.35769 10.18 140 151 150
2.05789 2.35769 10.18 138 149 148
2.06904 2.35769 10.18 140 149 148
2.08018 2.35769 10.18 143 152 151
2.09132 2.35769 10.18 145 154 153
2.10246 2.35769 10.18 144 153 152
2.11568 2.36 10.19 143 152 151
2.12684 2.36 10.19 144 153 152
2.14009 2.36232 10.2 144 153 152
2.15547 2.36695 10.22 144 153 152
2.16878 2.36927 10.23 145 154 153
2.18211 2.37158 10.24 146 155 154
2.19332 2.37158 10.24 145 154 153
2.20668 2.3739 10.25 145 154 153
2.22006 2.37622 10.26 144 153 152
2.23129 2.37622 10.26 143 152 151
2.24252 2.37622 10.26 141 152 151
2.25375 2.37622 10.26 141 152 151
2.26278 2.3739 10.25 142 152 154
2.274 2.3739 10.25 145 155 157
2.28299 2.37158 10.24 142 152 154
2.2942 2.37158 10.24 141 151 153
2.3054 2.37158 10.24 142 152 154
2.31435 2.36927 10.23 145 155 157
2.32555 2.36927 10.23 143 153 155
2.33675 2.36927 10.23 141 151 153
2.34794 2.36927 10.23 144 152 154
2.35914 2.36927 10.23 145 153 155
2.37034 2.36927 10.23 145 153 155
2.38386 2.37158 10.24 146 154 156
2.39741 2.3739 10.25 146 155 154
2.41098 2.37622 10.26 146 155 154
2.42221 2.37622 10.26 146 155 154
2.43582 2.37853 10.27 147 156 155
2.44706 2.37853 10.27 145 154 152
2.46069 2.38085 10.28 144 153 151
2.47194 2.38085 10.28 143 152 151
2.4832 2.38085 10.28 143 152 151
2.49445 2.38085 10.28 142 153 152
2.5057 2.38085 10.28 142 153 152
2.51451 2.37853 10.27 142 153 152
2.52575 2.37853 10.27 142 153 152
2.53699 2.37853 10.27 145 156 155
2.54575 2.37622 10.26 141 152 151
2.55698 2.37622 10.26 141 152 151
2.56821 2.37622 10.26 153 164 163
2.57944 2.37622 10.26 155 164 162
2.59067 2.37622 10.26 154 163 161
2.6019 2.37622 10.26 152 162 157
2.61313 2.37622 10.26 103 113 108
-1.44483 2.53173 10.88 126 128 122
-1.43292 2.53173 10.88 116 118 112
-1.41971 2.5294 10.87 115 117 111
-1.40781 2.5294 10.87 115 117 111
-1.39591 2.5294 10.87 116 118 112
-1.38401 2.5294 10.87 113 118 114
-1.37085 2.52707 10.86 113 118 114
-1.35646 2.52242 10.84 115 120 116
-1.34336 2.52009 10.83 116 121 117
-1.32904 2.51544 10.81 119 123 122
-1.31477 2.51078 10.79 121 125 124
-1.29813 2.50147 10.75 120 124 123
-1.28278 2.49449 10.72 108 112 111
-1.26749 2.48751 10.69 115 118 121
-1.25226 2.48053 10.66 141 144 147
-1.23594 2.47122 10.62 144 148 153
-1.22085 2.46424 10.59 161 165 170
-1.20698 2.45959 10.57 153 160 164
-1.19201 2.45261 10.54 148 155 159
-1.17824 2.44795 10.52 152 159 163
-1.16561 2.44563 10.51 153 160 164
-1.15301 2.4433 10.5 153 160 164
-1.14043 2.44097 10.49 153 160 164
-1.12787 2.43865 10.48 155 162 166
-1.11534 2.43632 10.47 157 164 168
-1.10282 2.43399 10.46 157 164 168
-1.09137 2.43399 10.46 157 164 168
-1.07992 2.43399 10.46 158 165 169
-1.06643 2.42934 10.44 158 165 169
-1.055 2.42934 10.44 158 166 168
-1.04257 2.42701 10.43 162 170 172
-1.03017 2.42469 10.42 164 172 174
-1.01779 2.42236 10.41 158 166 168
-1.00542 2.42003 10.4 157 165 167
-0.993084 2.4177 10.39 157 165 167
-0.981711 2.4177 10.39 157 165 167
-0.969405 2.41538 10.38 157 165 167
-0.95712 2.41305 10.37 157 166 165
-0.945769 2.41305 10.37 157 166 165
-0.934418 2.41305 10.37 157 166 164
-0.923067 2.41305 10.37 158 167 165
-0.911716 2.41305 10.37 159 168 166
-0.900365 2.41305 10.37 159 168 166
-0.889871 2.41538 10.38 158 167 165
-0.878509 2.41538 10.38 159 168 166
-0.867982 2.4177 10.39 159 168 166
-0.856609 2.4177 10.39 158 167 165
-0.845237 2.4177 10.39 160 169 167
-0.833864 2.4177 10.39 161 170 168
-0.822491 2.4177 10.39 159 168 166
-0.810337 2.41538 10.38 159 168 166
-0.798205 2.41305 10.37 158 167 165
-0.786096 2.41072 10.36 159 168 166
-0.774008 2.4084 10.35 168 174 173
-0.761205 2.40374 10.33 160 166 165
-0.749172 2.40142 10.32 159 165 164
-0.737161 2.39909 10.31 156 162 161
-0.724467 2.39443 10.29 160 166 165
-0.713204 2.39443 10.29 162 168 167
-0.70194 2.39443 10.29 164 169 165
-0.690006 2.39211 10.28 164 169 165
-0.678753 2.39211 10.28 164 169 165
-0.667501 2.39211 10.28 164 169 165
-0.656248 2.39211 10.28 165 170 166
-0.644996 2.39211 10.28 166 171 167
-0.633743 2.39211 10.28 165 170 166
-0.622491 2.39211 10.28 163 168 164
-0.611238 2.39211 10.28 162 167 163
-0.600569 2.39443 10.29 161 166 162
-0.589306 2.39443 10.29 162 166 165
-0.578042 2.39443 10.29 163 167 166
-0.566779 2.39443 10.29 165 169 168
-0.555516 2.39443 10.29 164 168 167
-0.544252 2.39443 10.29 164 168 167
-0.532989 2.39443 10.29 164 168 167
-0.521725 2.39443 10.29 163 167 166
-0.509966 2.39211 10.28 162 166 165
-0.499198 2.39443 10.29 160 166 165
-0.487935 2.39443 10.29 161 167 166
-0.477135 2.39676 10.3 161 167 166
-0.466313 2.39909 10.31 161 167 166
-0.455027 2.39909 10.31 160 166 166
-0.444603 2.40374 10.33 160 166 166
-0.433715 2.40607 10.34 161 167 167
-0.422805 2.4084 10.35 160 166 166
-0.411476 2.4084 10.35 161 167 167
-0.400534 2.41072 10.36 161 167 167
-0.389569 2.41305 10.37 160 166 166
-0.378218 2.41305 10.37 161 167 167
-0.366867 2.41305 10.37 160 166 165
-0.355173 2.41072 10.36 159 165 164
-0.343502 2.4084 10.35 159 165 164
-0.331852 2.40607 10.34 159 165 164
-0.320223 2.40374 10.33 157 163 162
-0.308318 2.39909 10.31 157 163 162
-0.296745 2.39676 10.3 157 163 162
-0.285193 2.39443 10.29 155 161 160
-0.273663 2.39211 10.28 155 161 160
-0.262411 2.39211 10.28 156 162 161
-0.250914 2.38978 10.27 157 161 160
-0.239673 2.38978 10.27 157 161 160
-0.228653 2.39211 10.28 157 162 158
-0.217189 2.38978 10.27 157 162 158
-0.205948 2.38978 10.27 155 160 156
-0.194706 2.38978 10.27 156 161 157
-0.183465 2.38978 10.27 157 162 158
-0.172223 2.38978 10.27 156 161 157
-0.161138 2.39211 10.28 156 160 159
-0.149886 2.39211 10.28 156 160 159
-0.138634 2.39211 10.28 156 160 159
-0.127381 2.39211 10.28 156 160 159
-0.116129 2.39211 10.28 155 161 160
-0.104978 2.39443 10.29 155 161 160
-0.0937146 2.39443 10.29 154 160 159
-0.0825313 2.39676 10.3 154 160 159
-0.0713261 2.39909 10.31 155 161 160
-0.0600408 2.39909 10.31 156 162 161
-0.0487555 2.39909 10.31 153 162 160
-0.0374701 2.39909 10.31 152 161 159
-0.0261848 2.39909 10.31 151 160 158
-0.0148995 2.39909 10.31 151 160 158
-0.00361414 2.39909 10.31 150 159 157
0.00767119 2.39909 10.31 150 159 157
0.0189565 2.39909 10.31 150 159 157
0.0302418 2.39909 10.31 150 159 157
0.0415272 2.39909 10.31 150 159 157
0.0528125 2.39909 10.31 148 157 155
0.0640357 2.39676 10.3 150 159 157
0.0752369 2.39443 10.29 151 160 158
0.0865844 2.39676 10.3 150 159 157
0.0978588 2.39676 10.3 148 157 155
0.109133 2.39676 10.3 148 157 155
0.120524 2.39909 10.31 150 159 157
0.131938 2.40142 10.32 150 159 157
0.143373 2.40374 10.33 148 157 155
0.15483 2.40607 10.34 148 157 155
0.166309 2.4084 10.35 151 160 158
0.177809 2.41072 10.36 151 160 158
0.189332 2.41305 10.37 148 157 155
0.200683 2.41305 10.37 150 156 156
0.212034 2.41305 10.37 150 156 156
0.223385 2.41305 10.37 150 156 156
0.234283 2.4084 10.35 150 156 156
0.245138 2.40374 10.33 150 156 156
0.255948 2.39909 10.31 150 156 156
0.266715 2.39443 10.29 149 155 155
1.53242 2.2362 9.61 149 147 147
1.54294 2.2362 9.61 149 147 147
1.55669 2.24086 9.63 149 147 148
1.57537 2.25249 9.68 149 147 148
1.59416 2.26413 9.73 147 147 148
1.61306 2.27576 9.78 146 146 147
1.63372 2.28972 9.84 143 147 147
