ply
format ascii 1.0
comment Created by Open3D
element vertex 1437
property double x
property double y
property double z
property uchar red
property uchar green
property uchar blue
end_header
0.77703 2.17241 9.38 123 120 117
0.787298 2.17241 9.38 113 110 107
0.797565 2.17241 9.38 139 133 131
0.807833 2.17241 9.38 160 154 152
0.8181 2.17241 9.38 164 158 156
0.828367 2.17241 9.38 164 158 156
0.838635 2.17241 9.38 161 155 153
0.848902 2.17241 9.38 161 155 153
0.859169 2.17241 9.38 163 156 151
0.869437 2.17241 9.38 166 159 154
0.879704 2.17241 9.38 167 161 154
0.889971 2.17241 9.38 167 161 154
0.900239 2.17241 9.38 165 160 150
0.910506 2.17241 9.38 163 158 148
0.920773 2.17241 9.38 150 147 137
0.931041 2.17241 9.38 158 155 145
0.941308 2.17241 9.38 161 160 152
0.95259 2.17472 9.39 148 147 139
0.962868 2.17472 9.39 123 120 117
0.974183 2.17704 9.4 147 144 141
0.984472 2.17704 9.4 158 156 150
0.99582 2.17936 9.41 154 152 146
1.00612 2.17936 9.41 155 151 144
1.0175 2.18167 9.42 156 152 145
1.0289 2.18399 9.43 158 152 145
1.04143 2.18862 9.45 160 154 147
1.05289 2.19094 9.46 162 156 149
1.06549 2.19557 9.48 161 155 148
1.077 2.19788 9.49 159 155 148
1.08853 2.2002 9.5 160 156 149
1.10009 2.20252 9.51 160 156 149
1.11167 2.20483 9.52 160 156 149
1.12327 2.20715 9.53 159 154 149
1.13489 2.20946 9.54 158 153 148
1.14653 2.21178 9.55 149 146 143
1.15819 2.2141 9.56 150 147 144
1.16988 2.21641 9.57 140 139 136
1.45302 2.29979 9.93 134 140 139
1.46241 2.29747 9.92 149 155 154
1.47178 2.29516 9.91 163 162 159
1.48114 2.29284 9.9 171 170 167
1.48896 2.28821 9.88 172 169 166
1.4937 2.27894 9.84 172 169 166
1.49989 2.272 9.81 170 162 160
1.506 2.26505 9.78 166 158 156
1.51206 2.2581 9.75 161 153 151
1.51648 2.24884 9.71 155 147 145
0 0 0 154 146 144
0.309042 2.37349 10.2 126 126 126
0.319265 2.36651 10.17 128 128 128
0.329423 2.35953 10.14 145 146 143
0.339179 2.35022 10.1 149 150 147
0 0 0 137 142 138
0.357713 2.32695 10 130 135 131
0.366815 2.31532 9.95 128 129 126
0.375809 2.30368 9.9 136 137 134
0.385083 2.29438 9.86 148 148 142
0.395073 2.28972 9.84 144 144 138
0.404194 2.28041 9.8 155 155 149
0.413651 2.27343 9.77 160 160 154
0.423476 2.26878 9.75 160 160 154
0.432813 2.2618 9.72 160 160 154
0.443452 2.2618 9.72 160 161 153
0.453157 2.25714 9.7 159 160 152
0.463297 2.25482 9.69 159 160 152
0.473415 2.25249 9.68 160 161 153
0.48301 2.24784 9.66 161 161 155
0.492562 2.24318 9.64 153 153 147
0.50207 2.23853 9.62 163 163 157
0.511535 2.23388 9.6 148 148 142
0.520955 2.22922 9.58 121 119 113
0.530887 2.22689 9.57 119 117 111
0.540231 2.22224 9.55 164 160 153
0.549531 2.21759 9.53 186 182 175
0.558787 2.21293 9.51 172 169 159
0.568 2.20828 9.49 172 169 159
0.577778 2.20595 9.48 171 168 158
0.586914 2.2013 9.46 168 165 155
0.596638 2.19897 9.45 167 164 154
0.606982 2.19897 9.45 166 163 153
0.616672 2.19664 9.44 167 164 154
0.626341 2.19432 9.43 167 164 154
0.635988 2.19199 9.42 168 165 155
0.646299 2.19199 9.42 167 164 154
0.65661 2.19199 9.42 170 165 155
0.666214 2.18966 9.41 168 163 153
0.676514 2.18966 9.41 167 162 152
0.686814 2.18966 9.41 167 162 152
0.697114 2.18966 9.41 167 162 152
0.707414 2.18966 9.41 165 160 150
0.716952 2.18734 9.4 170 165 155
0.727241 2.18734 9.4 169 164 154
0.736746 2.18501 9.39 167 162 152
0.747024 2.18501 9.39 166 161 151
0.757302 2.18501 9.39 170 165 160
0.766763 2.18268 9.38 166 161 156
0.77703 2.18268 9.38 142 139 136
0.787298 2.18268 9.38 144 141 138
0.797565 2.18268 9.38 164 158 156
0.807833 2.18268 9.38 163 157 155
0.8181 2.18268 9.38 165 159 157
0.828367 2.18268 9.38 165 159 157
0.838635 2.18268 9.38 164 158 156
0.848902 2.18268 9.38 163 157 155
0.859169 2.18268 9.38 163 156 151
0.869437 2.18268 9.38 165 158 153
0.879704 2.18268 9.38 167 161 154
0.889971 2.18268 9.38 168 162 155
0.900239 2.18268 9.38 168 162 155
0.910506 2.18268 9.38 157 151 144
0.920773 2.18268 9.38 138 134 127
0.931041 2.18268 9.38 158 154 147
0.942312 2.18501 9.39 149 147 141
0.95259 2.18501 9.39 130 128 122
0.962868 2.18501 9.39 111 109 110
0.974183 2.18734 9.4 120 118 119
0.984472 2.18734 9.4 163 159 159
0.99582 2.18966 9.41 156 152 152
1.00719 2.19199 9.42 156 151 146
1.01858 2.19432 9.43 157 152 147
1.02999 2.19664 9.44 158 154 147
1.04143 2.19897 9.45 159 155 148
1.054 2.20362 9.47 161 155 148
1.06661 2.20828 9.49 162 156 149
1.07813 2.21061 9.5 162 155 150
1.08968 2.21293 9.51 162 155 150
1.10125 2.21526 9.52 162 155 150
1.11283 2.21759 9.53 163 156 151
1.12562 2.22224 9.55 161 156 151
1.13608 2.22224 9.55 166 161 156
1.14773 2.22457 9.56 166 160 158
1.15941 2.22689 9.57 160 154 152
1.1711 2.22922 9.58 151 148 145
1.18159 2.22922 9.58 146 143 140
1.19332 2.23155 9.59 143 139 139
1.42263 2.2967 9.87 136 140 139
1.43343 2.2967 9.87 144 148 147
1.44424 2.2967 9.87 162 164 158
0 0 0 166 168 162
1.46139 2.28972 9.84 183 181 175
1.47066 2.2874 9.83 177 175 169
1.4769 2.28041 9.8 172 170 164
1.48308 2.27343 9.77 166 164 158
1.49071 2.26878 9.75 166 161 156
1.49676 2.2618 9.72 158 153 148
1.50275 2.25482 9.69 157 149 147
1.50867 2.24784 9.66 155 147 145
0.308436 2.37999 10.18 131 131 132
0.318951 2.37531 10.16 132 132 133
0.329098 2.3683 10.13 143 144 141
0.338843 2.35895 10.09 145 146 143
0 0 0 144 145 142
0.357355 2.33557 9.99 145 146 143
0.366447 2.32388 9.94 145 146 143
0.375809 2.31453 9.9 142 143 140
0.385473 2.30751 9.87 146 146 140
0.395474 2.30284 9.85 145 145 139
0.404606 2.29349 9.81 160 160 154
0.414497 2.28881 9.79 156 156 150
0.423911 2.2818 9.76 155 155 149
0.434149 2.27946 9.75 159 159 153
0.443909 2.27478 9.73 156 157 149
0.454092 2.27245 9.72 157 158 150
0.463775 2.26777 9.7 157 158 150
0.473904 2.26543 9.69 162 163 155
0.48351 2.26076 9.67 168 169 161
0.493584 2.25842 9.66 155 156 148
0.502592 2.2514 9.63 155 155 149
0.5126 2.24907 9.62 160 160 154
0.522043 2.24439 9.6 143 141 135
0.531442 2.23971 9.58 114 112 106
0.541362 2.23738 9.57 118 114 107
0.550108 2.23036 9.54 175 171 164
0.559962 2.22803 9.53 187 182 172
0.569197 2.22335 9.51 175 170 160
0.578388 2.21867 9.49 172 169 159
0.588155 2.21634 9.48 170 167 157
0.5979 2.214 9.47 170 167 157
0.607624 2.21166 9.46 168 165 155
0.617326 2.20932 9.45 167 164 154
0.627005 2.20698 9.44 167 164 154
0.637338 2.20698 9.44 167 164 154
0.646985 2.20465 9.43 167 164 154
0.657308 2.20465 9.43 169 164 154
0.66763 2.20465 9.43 167 162 152
0.677233 2.20231 9.42 167 162 152
0.687544 2.20231 9.42 167 162 152
0.697114 2.19997 9.41 169 164 154
0.707414 2.19997 9.41 175 170 160
0.716952 2.19763 9.4 172 167 157
0.727241 2.19763 9.4 170 165 155
0.736746 2.19529 9.39 167 162 152
0.747024 2.19529 9.39 167 162 152
0.757302 2.19529 9.39 165 161 154
0.766763 2.19296 9.38 175 171 164
0.77703 2.19296 9.38 169 166 163
0.787298 2.19296 9.38 156 153 150
0.797565 2.19296 9.38 161 155 153
0.807833 2.19296 9.38 164 158 156
0.8181 2.19296 9.38 165 159 157
0.828367 2.19296 9.38 165 159 157
0.838635 2.19296 9.38 164 159 154
0.848902 2.19296 9.38 164 159 154
0.859169 2.19296 9.38 165 160 155
0.869437 2.19296 9.38 164 159 154
0.879704 2.19296 9.38 166 160 153
0.889971 2.19296 9.38 167 161 154
0.900239 2.19296 9.38 170 164 157
0.911477 2.19529 9.39 168 162 155
0.920773 2.19296 9.38 157 155 149
0.932033 2.19529 9.39 157 155 149
0.942312 2.19529 9.39 123 119 119
0.95259 2.19529 9.39 104 100 100
0.962868 2.19529 9.39 105 102 106
0.974183 2.19763 9.4 97 94 98
0.984472 2.19763 9.4 126 123 127
0.99582 2.19997 9.41 125 122 126
1.00826 2.20465 9.43 144 142 136
1.01858 2.20465 9.43 156 154 148
1.03108 2.20932 9.45 159 154 149
1.04253 2.21166 9.46 159 154 149
1.05511 2.21634 9.48 159 154 149
1.06774 2.22101 9.5 160 155 150
1.07927 2.22335 9.51 161 155 153
1.09197 2.22803 9.53 160 154 152
1.10356 2.23036 9.54 160 154 152
1.11517 2.2327 9.55 160 154 152
1.1268 2.23504 9.56 165 159 157
1.13846 2.23738 9.57 168 162 160
1.15013 2.23971 9.58 168 162 160
1.16062 2.23971 9.58 171 165 163
1.17233 2.24205 9.59 172 166 164
1.18406 2.24439 9.6 165 159 157
1.19581 2.24673 9.61 156 153 150
1.20633 2.24673 9.61 149 146 143
1.21811 2.24907 9.62 147 143 143
1.22864 2.24907 9.62 147 143 143
1.39109 2.29115 9.8 133 134 131
1.40324 2.29349 9.81 140 141 138
1.41398 2.29349 9.81 160 162 156
1.42472 2.29349 9.81 162 164 158
1.43399 2.29115 9.8 176 177 169
1.44325 2.28881 9.79 175 176 168
1.45396 2.28881 9.79 176 175 167
1.46318 2.28647 9.78 175 174 166
1.46937 2.27946 9.75 172 170 164
1.47549 2.27245 9.72 166 164 158
1.48307 2.26777 9.7 170 165 160
1.4906 2.26309 9.68 166 161 156
1.49965 2.26076 9.67 152 146 144
0.318638 2.38409 10.15 129 129 130
0.329098 2.3794 10.13 126 126 126
0.338507 2.36765 10.08 143 143 143
0.348154 2.35826 10.04 144 145 142
0.357355 2.34651 9.99 144 145 142
0.366815 2.33712 9.95 145 146 143
0.376188 2.32772 9.91 145 146 143
0.385864 2.32067 9.88 145 145 139
0.396277 2.31833 9.87 145 145 139
0.405844 2.31128 9.84 144 146 140
0.415344 2.30423 9.81 149 151 145
0.425648 2.30188 9.8 144 146 140
0.435484 2.29719 9.78 155 157 151
0.445277 2.29249 9.76 157 158 150
0.455493 2.29014 9.75 159 160 152
0.465209 2.28544 9.73 161 162 154
0.475371 2.28309 9.72 162 163 155
0.48451 2.27605 9.69 164 165 157
0.494095 2.27135 9.67 155 156 148
0.503636 2.26665 9.65 156 156 150
0.513133 2.26195 9.63 161 161 155
0.522587 2.25726 9.61 159 156 153
0.531996 2.25256 9.59 144 141 138
0.541928 2.25021 9.58 108 106 100
0.551261 2.24551 9.56 120 118 112
0.56055 2.24081 9.54 179 171 164
0.570394 2.23846 9.53 179 171 164
0.579607 2.23377 9.51 172 168 156
0.588775 2.22907 9.49 172 168 156
0.598532 2.22672 9.48 172 168 156
0.608266 2.22437 9.47 170 166 154
0.617979 2.22202 9.46 170 166 154
0.62767 2.21967 9.45 169 165 153
0.638014 2.21967 9.45 168 164 152
0.647672 2.21732 9.44 168 164 152
0.658005 2.21732 9.44 168 164 152
0.66763 2.21498 9.43 166 162 150
0.677952 2.21498 9.43 166 161 151
0.688274 2.21498 9.43 166 161 151
0.697855 2.21263 9.42 168 163 153
0.707414 2.21028 9.41 175 170 160
0.717715 2.21028 9.41 170 165 155
0.727241 2.20793 9.4 169 164 154
0.73753 2.20793 9.4 167 162 152
0.747024 2.20558 9.39 167 162 152
0.757302 2.20558 9.39 165 161 154
0.766763 2.20323 9.38 168 164 157
0.77703 2.20323 9.38 173 168 163
0.787298 2.20323 9.38 165 160 155
0.797565 2.20323 9.38 164 159 154
0.807833 2.20323 9.38 164 159 154
0.8181 2.20323 9.38 165 160 155
0.828367 2.20323 9.38 165 160 155
0.838635 2.20323 9.38 164 159 154
0.848902 2.20323 9.38 165 160 155
0.859169 2.20323 9.38 167 160 155
0.869437 2.20323 9.38 166 159 154
0.879704 2.20323 9.38 165 159 152
0.889971 2.20323 9.38 165 159 152
0.901199 2.20558 9.39 161 155 148
0.911477 2.20558 9.39 148 142 135
0.921755 2.20558 9.39 135 131 131
0.932033 2.20558 9.39 118 114 114
0.942312 2.20558 9.39 97 95 96
0.953604 2.20793 9.4 98 96 97
0.963894 2.20793 9.4 92 88 94
0.974183 2.20793 9.4 106 102 108
0.985519 2.21028 9.41 131 128 132
0.996878 2.21263 9.42 153 150 154
1.00826 2.21498 9.43 158 154 154
1.01966 2.21732 9.44 155 151 151
1.03108 2.21967 9.45 155 152 149
1.04473 2.22672 9.48 155 152 149
1.05622 2.22907 9.49 158 152 150
1.06886 2.23377 9.51 158 152 150
1.0804 2.23612 9.52 157 151 149
1.09312 2.24081 9.54 155 149 147
1.10472 2.24316 9.55 160 154 152
1.11517 2.24316 9.55 161 155 153
1.12798 2.24786 9.57 170 164 162
1.13965 2.25021 9.58 167 161 159
1.15133 2.25256 9.59 167 161 159
1.16304 2.25491 9.6 166 160 158
1.17477 2.25726 9.61 165 159 157
1.18652 2.2596 9.62 166 160 158
1.19705 2.2596 9.62 168 162 160
1.20884 2.26195 9.63 158 152 150
1.22065 2.2643 9.64 153 147 145
1.2312 2.2643 9.64 148 142 140
1.24304 2.26665 9.65 153 146 147
1.2536 2.26665 9.65 157 150 151
1.26416 2.26665 9.65 154 150 150
1.27605 2.269 9.66 149 145 145
1.28795 2.27135 9.67 147 143 143
1.3238 2.27839 9.7 146 142 142
1.3358 2.28074 9.71 146 142 142
1.34781 2.28309 9.72 139 135 135
1.35985 2.28544 9.73 133 130 127
1.37332 2.29014 9.75 155 152 149
1.38541 2.29249 9.76 161 161 155
1.39609 2.29249 9.76 164 164 158
1.40533 2.29014 9.75 180 181 173
1.41601 2.29014 9.75 181 182 174
1.42668 2.29014 9.75 180 179 171
1.43735 2.29014 9.75 176 175 167
1.44654 2.28779 9.74 173 172 164
1.45421 2.28309 9.72 172 171 163
1.46485 2.28309 9.72 173 169 162
1.47245 2.27839 9.7 166 162 155
1.48154 2.27605 9.69 161 156 151
1.4906 2.2737 9.68 151 146 141
1.5012 2.2737 9.68 144 138 136
0.328448 2.38577 10.11 118 118 118
0.338507 2.37869 10.08 142 142 142
0.348154 2.36925 10.04 144 145 142
0.357355 2.35745 9.99 144 145 142
0.367184 2.35038 9.96 145 146 143
0.376568 2.34094 9.92 144 145 142
0.386255 2.33386 9.89 144 146 140
0.396679 2.3315 9.88 144 146 140
0.407081 2.32914 9.87 138 140 134
0.417038 2.32442 9.85 131 133 127
0.426517 2.31734 9.82 123 125 119
0.436375 2.31262 9.8 147 149 143
0.44619 2.3079 9.78 159 159 153
0.455961 2.30318 9.76 159 159 153
0.466166 2.30082 9.75 162 163 155
0.47586 2.2961 9.73 160 161 153
0.48501 2.28902 9.7 159 159 153
0.494606 2.2843 9.68 156 156 150
0.504158 2.27958 9.66 157 157 151
0.514199 2.27722 9.65 160 160 154
0.523674 2.2725 9.63 160 159 156
0.533106 2.26778 9.61 156 155 152
0.542494 2.26306 9.59 137 136 133
0.551837 2.25834 9.57 104 103 100
0.561138 2.25362 9.55 118 113 108
0.570993 2.25126 9.54 179 174 169
0.580216 2.24654 9.52 188 184 172
0.590016 2.24418 9.51 173 169 157
0.599163 2.23946 9.49 170 168 156
0.609551 2.23946 9.49 168 166 154
0.619285 2.2371 9.48 168 166 154
0.628334 2.23238 9.46 167 165 153
0.638689 2.23238 9.46 167 165 153
0.648358 2.23002 9.45 167 165 153
0.658005 2.22766 9.44 166 164 152
0.668338 2.22766 9.44 165 163 151
0.677952 2.2253 9.43 163 161 149
0.688274 2.2253 9.43 164 162 150
0.697855 2.22295 9.42 165 163 151
0.707414 2.22059 9.41 167 165 153
0.717715 2.22059 9.41 167 165 153
0.727241 2.21823 9.4 165 163 151
0.73753 2.21823 9.4 165 163 151
0.747024 2.21587 9.39 166 164 152
0.757302 2.21587 9.39 165 161 154
0.767581 2.21587 9.39 165 161 154
0.77703 2.21351 9.38 166 161 156
0.787298 2.21351 9.38 167 162 157
0.797565 2.21351 9.38 164 159 154
0.807833 2.21351 9.38 161 156 151
0.8181 2.21351 9.38 163 158 153
0.828367 2.21351 9.38 166 161 156
0.838635 2.21351 9.38 163 158 153
0.848902 2.21351 9.38 165 160 155
0.859169 2.21351 9.38 168 161 156
0.869437 2.21351 9.38 166 159 154
0.880642 2.21587 9.39 165 159 152
0.89092 2.21587 9.39 162 156 149
0.901199 2.21587 9.39 159 155 148
0.912447 2.21823 9.4 153 149 142
0.921755 2.21587 9.39 138 136 136
0.933026 2.21823 9.4 120 118 118
0.943315 2.21823 9.4 98 96 97
0.953604 2.21823 9.4 100 98 99
0.963894 2.21823 9.4 116 115 119
0.975219 2.22059 9.41 137 136 140
0.986567 2.22295 9.42 163 161 162
0.997936 2.2253 9.43 159 157 158
1.00933 2.22766 9.44 155 153 153
1.02074 2.23002 9.45 152 150 150
1.03218 2.23238 9.46 150 146 146
1.04584 2.23946 9.49 153 149 149
1.05734 2.24182 9.5 154 150 150
1.06998 2.24654 9.52 154 150 150
1.08154 2.2489 9.53 153 149 149
1.09312 2.25126 9.54 155 151 151
1.10472 2.25362 9.55 161 155 153
1.11751 2.25834 9.57 164 158 156
1.12916 2.2607 9.58 165 159 157
1.14083 2.26306 9.59 168 162 160
1.15373 2.26778 9.61 170 162 160
1.16546 2.27014 9.62 169 161 159
1.17722 2.2725 9.63 167 161 159
1.18899 2.27486 9.64 166 160 158
1.20079 2.27722 9.65 166 160 158
1.21261 2.27958 9.66 161 155 153
1.22318 2.27958 9.66 170 164 162
1.23375 2.27958 9.66 151 145 143
1.24561 2.28194 9.67 158 152 150
1.2562 2.28194 9.67 158 152 150
1.26678 2.28194 9.67 158 150 148
1.27869 2.2843 9.68 154 146 144
1.28929 2.2843 9.68 147 139 137
1.30122 2.28666 9.69 151 143 141
1.31183 2.28666 9.69 160 152 150
1.3238 2.28902 9.7 152 144 142
1.3358 2.29138 9.71 155 147 145
1.34642 2.29138 9.71 155 147 145
1.35845 2.29374 9.72 164 159 154
1.3705 2.2961 9.73 193 188 183
1.38115 2.2961 9.73 186 186 175
1.39037 2.29374 9.72 186 186 175
1.40101 2.29374 9.72 186 186 175
1.41165 2.29374 9.72 178 178 167
1.42082 2.29138 9.71 177 177 166
1.43145 2.29138 9.71 176 176 165
1.4406 2.28902 9.7 172 172 161
1.45121 2.28902 9.7 176 176 165
1.46032 2.28666 9.69 168 167 159
1.46941 2.2843 9.68 157 156 148
1.48001 2.2843 9.68 157 155 149
1.4906 2.2843 9.68 146 144 138
0 0 0 135 139 139
0 0 0 137 141 140
0.35807 2.37314 10.01 142 146 145
0.367553 2.36366 9.97 139 140 137
0.377327 2.35654 9.94 135 136 133
0.387036 2.34943 9.91 142 143 140
0.397883 2.34943 9.91 145 146 143
0.407906 2.34469 9.89 143 145 139
0.417885 2.33995 9.87 138 140 134
0.42782 2.33521 9.85 129 131 125
0.437266 2.32809 9.82 146 148 142
0.447558 2.32572 9.81 156 156 150
0.457362 2.32098 9.79 156 156 150
0.467122 2.31624 9.77 161 161 155
0.476838 2.3115 9.75 159 159 153
0.48601 2.30439 9.72 156 156 150
0.495628 2.29964 9.7 157 157 151
0.50468 2.29253 9.67 163 163 157
0.533661 2.28068 9.62 163 163 157
0.543625 2.27831 9.61 161 160 157
0.552991 2.27357 9.59 144 143 140
0.562313 2.26882 9.57 109 109 103
0.571591 2.26408 9.55 123 123 117
0.581435 2.26171 9.54 175 171 164
0.590637 2.25697 9.52 182 178 171
0.600426 2.2546 9.51 171 169 157
0.610193 2.25223 9.5 170 168 156
0.619939 2.24986 9.49 168 166 154
0.629662 2.24749 9.48 168 166 154
0.639364 2.24512 9.47 169 165 153
0.649044 2.24275 9.46 168 164 152
0.658702 2.24038 9.45 167 163 151
0.669046 2.24038 9.45 167 163 151
0.678671 2.238 9.44 166 162 150
0.689004 2.238 9.44 166 162 150
0.698596 2.23563 9.43 166 162 150
0.708918 2.23563 9.43 169 165 153
0.717715 2.23089 9.41 170 166 154
0.728015 2.23089 9.41 167 163 151
0.73753 2.22852 9.4 165 163 151
0.74782 2.22852 9.4 166 164 152
0.758109 2.22852 9.4 165 161 154
0.767581 2.22615 9.39 163 159 152
0.77703 2.22378 9.38 173 169 162
0.787298 2.22378 9.38 168 164 157
0.797565 2.22378 9.38 153 147 145
0.807833 2.22378 9.38 156 150 148
0.8181 2.22378 9.38 171 166 161
0.828367 2.22378 9.38 167 162 157
0.838635 2.22378 9.38 153 146 141
0.848902 2.22378 9.38 161 154 149
0.859169 2.22378 9.38 167 161 154
0.870364 2.22615 9.39 166 160 153
0.880642 2.22615 9.39 165 159 152
0.89092 2.22615 9.39 162 156 149
0.901199 2.22615 9.39 159 155 148
0.912447 2.22852 9.4 161 157 150
0.922737 2.22852 9.4 168 167 164
0.933026 2.22852 9.4 163 162 159
0.943315 2.22852 9.4 131 131 131
0.953604 2.22852 9.4 112 112 112
0.964919 2.23089 9.41 158 158 159
0.976256 2.23326 9.42 152 152 153
0.987614 2.23563 9.43 149 147 147
0.998994 2.238 9.44 153 151 151
1.0104 2.24038 9.45 154 152 152
1.02182 2.24275 9.46 149 147 147
1.03436 2.24749 9.48 151 147 147
1.04694 2.25223 9.5 153 149 149
1.05845 2.2546 9.51 153 149 149
1.07111 2.25934 9.53 153 149 149
1.08267 2.26171 9.54 153 149 149
1.09426 2.26408 9.55 156 152 152
1.10703 2.26882 9.57 161 158 155
1.11867 2.2712 9.58 163 160 157
1.13034 2.27357 9.59 167 162 157
1.14321 2.27831 9.61 170 165 160
1.15493 2.28068 9.62 171 166 161
1.16668 2.28305 9.63 172 167 162
1.17966 2.28779 9.65 168 163 158
1.19146 2.29016 9.66 168 163 158
1.20328 2.29253 9.67 167 162 157
1.21512 2.2949 9.68 168 163 158
1.22698 2.29727 9.69 168 163 158
1.23758 2.29727 9.69 165 160 155
1.24819 2.29727 9.69 170 163 158
1.2588 2.29727 9.69 167 160 155
1.2694 2.29727 9.69 169 162 157
1.28001 2.29727 9.69 159 152 147
1.29062 2.29727 9.69 157 148 143
1.30122 2.29727 9.69 169 160 155
1.31318 2.29964 9.7 169 160 155
1.3238 2.29964 9.7 163 154 149
1.33442 2.29964 9.7 170 162 155
1.34504 2.29964 9.7 176 168 161
1.35566 2.29964 9.7 182 176 169
1.36627 2.29964 9.7 188 182 175
1.37689 2.29964 9.7 180 177 167
1.38751 2.29964 9.7 181 178 168
1.39668 2.29727 9.69 181 178 168
1.40729 2.29727 9.69 178 175 165
1.41643 2.2949 9.68 180 177 167
1.42703 2.2949 9.68 180 177 167
1.43763 2.2949 9.68 170 170 159
1.44822 2.2949 9.68 173 173 162
1.45882 2.2949 9.68 168 166 160
1.47093 2.29727 9.69 153 151 145
1.48154 2.29727 9.69 160 159 156
0 0 0 136 140 139
0.35807 2.3841 10.01 135 139 138
0.367921 2.37696 9.98 117 118 115
0.378086 2.37219 9.96 121 122 119
0.388207 2.36743 9.94 131 132 129
0.398686 2.36505 9.93 143 144 141
0.408731 2.36029 9.91 151 153 147
0.419155 2.3579 9.9 150 152 146
0.429123 2.35314 9.88 137 139 133
0.438601 2.346 9.85 145 147 141
0.448471 2.34123 9.83 154 154 148
0.458296 2.33647 9.81 159 159 153
0.468078 2.33171 9.79 160 160 154
0.477327 2.32456 9.76 155 155 149
0.48701 2.3198 9.74 155 155 149
0.49665 2.31503 9.72 159 159 153
0.505724 2.30789 9.69 161 161 155
0.515797 2.30551 9.68 157 157 151
0.525306 2.30074 9.66 156 156 150
0.53477 2.29598 9.64 157 157 151
0.544191 2.29122 9.62 157 159 153
0.554144 2.28883 9.61 157 159 153
0.5629 2.28169 9.58 145 146 143
0.572788 2.27931 9.57 104 105 102
0.582044 2.27454 9.55 120 118 112
0.591257 2.26978 9.53 171 169 163
0.601057 2.2674 9.52 184 182 170
0.610836 2.26502 9.51 172 170 158
0.620592 2.26264 9.5 168 166 154
0.630326 2.26025 9.49 167 165 153
0.640039 2.25787 9.48 166 164 152
0.64973 2.25549 9.47 165 163 151
0.659399 2.25311 9.46 165 163 151
0.669754 2.25311 9.46 166 164 152
0.679389 2.25073 9.45 164 162 150
0.689734 2.25073 9.45 164 162 150
0.699337 2.24835 9.44 163 161 149
0.708918 2.24596 9.43 167 165 153
0.71924 2.24596 9.43 168 166 154
0.728788 2.24358 9.42 165 163 151
0.738315 2.2412 9.41 165 163 151
0.748615 2.2412 9.41 166 164 152
0.758109 2.23882 9.4 166 162 155
0.767581 2.23644 9.39 165 161 154
0.777859 2.23644 9.39 177 173 166
0.788137 2.23644 9.39 171 167 160
0.797565 2.23405 9.38 164 159 154
0.807833 2.23405 9.38 171 166 161
0.8181 2.23405 9.38 172 165 160
0.828367 2.23405 9.38 168 161 156
0.838635 2.23405 9.38 162 155 150
0.848902 2.23405 9.38 155 148 143
0.859169 2.23405 9.38 166 159 154
0.870364 2.23644 9.39 166 159 154
0.880642 2.23644 9.39 163 156 151
0.89092 2.23644 9.39 161 154 149
0.902158 2.23882 9.4 159 154 149
0.912447 2.23882 9.4 160 155 150
0.923718 2.2412 9.41 155 155 149
0.934019 2.2412 9.41 152 152 146
0.944319 2.2412 9.41 144 145 142
0.954619 2.2412 9.41 124 125 122
0.965945 2.24358 9.42 155 156 153
0.977292 2.24596 9.43 147 148 145
0.988661 2.24835 9.44 148 147 144
1.00005 2.25073 9.45 152 151 148
1.01147 2.25311 9.46 152 150 150
1.02398 2.25787 9.48 149 147 147
1.03545 2.26025 9.49 149 147 147
1.04804 2.26502 9.51 149 147 147
1.06068 2.26978 9.53 148 146 146
1.07223 2.27216 9.54 149 147 147
1.08381 2.27454 9.55 151 150 147
1.09655 2.27931 9.57 159 158 155
1.10819 2.28169 9.58 162 160 154
1.11984 2.28407 9.59 165 163 157
1.13269 2.28883 9.61 168 167 159
1.1444 2.29122 9.62 173 172 164
1.15613 2.2936 9.63 175 171 164
1.1691 2.29836 9.65 171 167 160
1.18088 2.30074 9.66 167 163 156
1.19392 2.30551 9.68 171 167 160
1.20576 2.30789 9.69 168 164 157
1.21763 2.31027 9.7 170 166 159
1.22824 2.31027 9.7 166 162 155
1.24014 2.31265 9.71 165 161 154
1.25077 2.31265 9.71 169 163 156
1.2614 2.31265 9.71 167 161 154
1.27071 2.31027 9.7 168 162 155
1.28133 2.31027 9.7 162 156 149
1.29195 2.31027 9.7 169 161 154
1.30257 2.31027 9.7 177 169 162
1.31318 2.31027 9.7 183 175 168
1.3238 2.31027 9.7 181 173 166
1.33442 2.31027 9.7 185 178 168
1.34504 2.31027 9.7 185 178 168
1.35566 2.31027 9.7 183 176 166
1.36627 2.31027 9.7 184 177 167
1.37689 2.31027 9.7 183 178 168
1.38608 2.30789 9.69 183 178 168
1.39524 2.30551 9.68 180 177 167
1.40584 2.30551 9.68 172 169 159
1.41497 2.30312 9.67 175 172 162
1.42556 2.30312 9.67 173 170 160
1.43763 2.30551 9.68 161 158 148
1.44822 2.30551 9.68 170 167 157
1.46032 2.30789 9.69 167 167 161
1.47245 2.31027 9.7 139 139 133
0.358428 2.39746 10.02 125 131 130
0.36829 2.39028 9.99 116 116 116
0.378466 2.3855 9.97 123 123 123
0.388988 2.3831 9.96 143 144 141
0.399489 2.38071 9.95 140 141 138
0.409968 2.37832 9.94 144 145 142
0.420002 2.37353 9.92 144 145 142
0.429991 2.36875 9.9 143 144 141
0.439937 2.36396 9.88 151 152 149
0.449383 2.35679 9.85 153 154 151
0.458764 2.34961 9.82 154 155 152
0 0 0 157 156 153
0.478305 2.34004 9.78 155 154 151
0.48801 2.33525 9.76 155 154 151
0.497161 2.32807 9.73 159 158 155
0.506246 2.32089 9.7 161 160 157
0.51633 2.3185 9.69 157 156 153
0.525849 2.31372 9.67 157 157 151
0.535879 2.31132 9.66 157 157 151
0.545322 2.30654 9.64 154 156 150
0.554721 2.30175 9.62 154 156 150
0.564076 2.29697 9.6 166 167 164
0.573387 2.29218 9.58 136 137 134
0.583263 2.28979 9.57 105 103 97
0.592498 2.285 9.55 133 131 125
0.601689 2.28022 9.53 175 173 161
0.611478 2.27783 9.52 181 179 167
0.621245 2.27543 9.51 168 166 154
0.630991 2.27304 9.5 168 166 154
0.640714 2.27065 9.49 168 166 154
0.650416 2.26826 9.48 168 166 154
0.660793 2.26826 9.48 168 166 154
0.670461 2.26586 9.47 170 168 156
0.680108 2.26347 9.46 167 165 153
0.690463 2.26347 9.46 164 162 150
0.700077 2.26108 9.45 164 162 150
0.70967 2.25869 9.44 166 164 152
0.720003 2.25869 9.44 167 165 153
0.729562 2.25629 9.43 166 164 152
0.7391 2.2539 9.42 166 163 153
0.748615 2.25151 9.41 167 164 154
0.758915 2.25151 9.41 167 164 154
0.768398 2.24911 9.4 161 158 148
0.778687 2.24911 9.4 161 157 150
0.788137 2.24672 9.39 164 160 153
0.798416 2.24672 9.39 165 160 155
0.808694 2.24672 9.39 165 160 155
0.818972 2.24672 9.39 165 160 155
0.82925 2.24672 9.39 165 160 155
0.839529 2.24672 9.39 167 160 155
0.849807 2.24672 9.39 166 159 154
0.860085 2.24672 9.39 167 161 154
0.871291 2.24911 9.4 165 159 152
0.88158 2.24911 9.4 160 156 149
0.891869 2.24911 9.4 161 157 150
0.903118 2.25151 9.41 159 158 150
0.913418 2.25151 9.41 158 157 149
0.923718 2.25151 9.41 155 156 148
0.935011 2.2539 9.42 154 155 147
0.945322 2.2539 9.42 151 153 147
0.956648 2.25629 9.43 143 145 139
0.96697 2.25629 9.43 147 149 143
0.978328 2.25869 9.44 147 149 143
0.989709 2.26108 9.45 149 149 143
1.00111 2.26347 9.46 149 149 143
1.01253 2.26586 9.47 149 148 145
1.02506 2.27065 9.49 149 148 145
1.03763 2.27543 9.51 149 148 145
1.05024 2.28022 9.53 149 148 145
1.06179 2.28261 9.54 141 140 137
1.07448 2.2874 9.56 142 141 138
1.08608 2.28979 9.57 147 146 143
1.0977 2.29218 9.58 154 153 150
1.10934 2.29458 9.59 146 145 142
1.12218 2.29936 9.61 161 160 157
1.13387 2.30175 9.62 162 163 155
1.14678 2.30654 9.64 159 160 152
1.15854 2.30893 9.65 159 158 150
1.17152 2.31372 9.67 161 160 152
1.18333 2.31611 9.68 170 166 159
1.19639 2.32089 9.7 178 174 167
1.2095 2.32568 9.72 172 168 161
1.22014 2.32568 9.72 170 166 159
1.23204 2.32807 9.73 166 162 155
1.24269 2.32807 9.73 165 161 154
1.25334 2.32807 9.73 167 163 156
1.26399 2.32807 9.73 167 163 156
1.27333 2.32568 9.72 170 164 157
1.28397 2.32568 9.72 173 167 160
1.29461 2.32568 9.72 173 167 160
1.30525 2.32568 9.72 173 167 160
1.31454 2.32329 9.71 182 174 167
1.32653 2.32568 9.72 184 176 169
1.3358 2.32329 9.71 183 175 168
1.34504 2.32089 9.7 183 175 168
1.35566 2.32089 9.7 183 176 166
1.36627 2.32089 9.7 183 176 166
1.37689 2.32089 9.7 183 176 166
1.38608 2.3185 9.69 185 178 168
1.39668 2.3185 9.69 177 172 162
1.40584 2.31611 9.68 167 162 152
1.41643 2.31611 9.68 168 163 153
1.42703 2.31611 9.68 162 157 147
1.43911 2.3185 9.69 140 139 131
1.45121 2.32089 9.7 155 154 146
0.358786 2.41084 10.03 128 137 136
0.36829 2.40123 9.99 113 117 116
0.378845 2.39882 9.98 118 122 121
0.389379 2.39642 9.97 142 146 145
0.399891 2.39401 9.96 137 141 140
0.410793 2.39401 9.96 139 144 140
0.420848 2.38921 9.94 140 145 141
0.43086 2.3844 9.92 140 145 141
0.440828 2.37959 9.9 142 147 143
0.450296 2.37238 9.87 153 154 151
0.460165 2.36757 9.85 154 155 152
0 0 0 153 154 151
0.479283 2.35556 9.8 154 155 152
0.48851 2.34835 9.77 156 155 152
0.498183 2.34354 9.75 159 158 155
0.507289 2.33633 9.72 159 158 155
0.516863 2.33152 9.7 157 156 153
0.526937 2.32912 9.69 159 159 153
0.536434 2.32431 9.67 156 156 150
0.545888 2.3195 9.65 157 159 153
0.555297 2.31469 9.63 153 155 149
0.565251 2.31229 9.62 159 161 155
0.573985 2.30508 9.59 151 153 147
0.583873 2.30268 9.58 140 140 134
0.593118 2.29787 9.56 111 111 105
0.602951 2.29547 9.55 131 128 118
0.61212 2.29066 9.53 179 176 166
0.621898 2.28825 9.52 177 173 161
0.631655 2.28585 9.51 172 168 156
0.641389 2.28345 9.5 171 169 157
0.651102 2.28104 9.49 171 169 157
0.66149 2.28104 9.49 172 170 158
0.67117 2.27864 9.48 171 169 157
0.680827 2.27624 9.47 172 170 158
0.691193 2.27624 9.47 164 162 150
0.700818 2.27383 9.46 164 162 150
0.710421 2.27143 9.45 165 163 151
0.720765 2.27143 9.45 166 164 152
0.730336 2.26903 9.44 166 164 152
0.739884 2.26662 9.43 164 164 153
0.750206 2.26662 9.43 165 165 154
0.759722 2.26422 9.42 166 166 155
0.769215 2.26181 9.41 161 161 150
0.779516 2.26181 9.41 159 158 150
0.788976 2.25941 9.4 161 160 152
0.799266 2.25941 9.4 163 159 152
0.809555 2.25941 9.4 163 159 152
0.819844 2.25941 9.4 163 159 152
0.82925 2.25701 9.39 164 160 153
0.839529 2.25701 9.39 163 159 152
0.850712 2.25941 9.4 164 160 153
0.861001 2.25941 9.4 166 162 155
0.871291 2.25941 9.4 161 157 150
0.882518 2.26181 9.41 161 157 150
0.892818 2.26181 9.41 163 159 152
0.903118 2.26181 9.41 159 158 150
0.914389 2.26422 9.42 158 157 149
0.925682 2.26662 9.43 155 156 148
0.936004 2.26662 9.43 155 156 148
0.947329 2.26903 9.44 154 155 147
0.957662 2.26903 9.44 161 162 154
0.969021 2.27143 9.45 155 155 149
0.980401 2.27383 9.46 151 151 145
0.990756 2.27383 9.46 148 148 142
1.00323 2.27864 9.48 147 147 141
1.01467 2.28104 9.49 148 148 142
1.02614 2.28345 9.5 148 148 142
1.03981 2.29066 9.53 147 147 141
1.05135 2.29306 9.54 146 146 140
1.06402 2.29787 9.56 140 141 138
1.07673 2.30268 9.58 140 141 138
1.08835 2.30508 9.59 133 134 131
1.09999 2.30748 9.6 140 141 138
1.11166 2.30989 9.61 146 146 146
1.12334 2.31229 9.62 146 146 146
1.13623 2.3171 9.64 159 160 157
1.14916 2.32191 9.66 151 152 149
1.16214 2.32671 9.68 155 153 147
1.17394 2.32912 9.69 157 155 149
1.18577 2.33152 9.7 163 161 155
1.19886 2.33633 9.72 168 166 160
1.21074 2.33873 9.73 169 167 161
1.2239 2.34354 9.75 168 166 160
1.23458 2.34354 9.75 168 164 157
1.24525 2.34354 9.75 165 161 154
1.25592 2.34354 9.75 166 162 155
1.26659 2.34354 9.75 170 166 159
1.27595 2.34113 9.74 172 166 159
1.28662 2.34113 9.74 172 166 159
1.29595 2.33873 9.73 174 168 161
1.3066 2.33873 9.73 177 171 164
1.31725 2.33873 9.73 186 180 173
1.32653 2.33633 9.72 180 174 167
1.33717 2.33633 9.72 181 173 166
1.34781 2.33633 9.72 182 174 167
1.35705 2.33392 9.71 184 177 167
1.36627 2.33152 9.7 185 178 168
1.37689 2.33152 9.7 180 175 165
1.38751 2.33152 9.7 180 175 165
1.39813 2.33152 9.7 180 175 165
1.40729 2.32912 9.69 169 164 154
1.4179 2.32912 9.69 161 159 153
1.42998 2.33152 9.7 154 152 146
1.44208 2.33392 9.71 142 142 136
0.368659 2.41458 10 123 127 127
0.379225 2.41217 9.99 123 127 127
0.38977 2.40975 9.98 137 141 141
0.400694 2.40975 9.98 128 132 132
0.411205 2.40734 9.97 128 132 131
0.421695 2.40492 9.96 139 143 142
0.431729 2.40009 9.94 135 139 138
0.441273 2.39285 9.91 129 133 132
0.451208 2.38802 9.89 136 140 139
0.460632 2.38078 9.86 154 158 157
0.470469 2.37595 9.84 158 158 158
0.479772 2.36871 9.81 157 157 157
0.48951 2.36388 9.79 159 158 155
0.498694 2.35663 9.76 159 158 155
0.507811 2.34939 9.73 159 158 155
0.517929 2.34697 9.72 159 158 155
0.527481 2.34214 9.7 159 159 153
0.537544 2.33973 9.69 156 156 150
0.547019 2.3349 9.67 155 157 151
0.556451 2.33007 9.65 153 155 149
0.565838 2.32524 9.63 153 155 149
0.575182 2.32041 9.61 159 161 155
0.584482 2.31558 9.59 163 163 157
0.594359 2.31317 9.58 135 135 129
0.603583 2.30834 9.56 118 118 107
0.612763 2.30351 9.54 134 134 123
0.622552 2.3011 9.53 176 172 160
0.632319 2.29868 9.52 177 173 161
0.642065 2.29627 9.51 173 171 157
0.651788 2.29385 9.5 171 169 155
0.662187 2.29385 9.5 168 166 154
0.671878 2.29144 9.49 170 168 156
0.681546 2.28902 9.48 170 168 156
0.691923 2.28902 9.48 164 162 150
0.701559 2.28661 9.47 166 164 152
0.711173 2.2842 9.46 166 164 152
0.721528 2.2842 9.46 163 164 151
0.731109 2.28178 9.45 164 165 152
0.740669 2.27937 9.44 164 164 153
0.751002 2.27937 9.44 164 164 153
0.760528 2.27695 9.43 165 165 154
0.77085 2.27695 9.43 163 163 152
0.780344 2.27454 9.42 163 162 154
0.790655 2.27454 9.42 162 161 153
0.800966 2.27454 9.42 162 161 153
0.810416 2.27212 9.41 161 160 152
0.821589 2.27454 9.42 163 160 150
0.831017 2.27212 9.41 163 160 150
0.841317 2.27212 9.41 164 161 151
0.851617 2.27212 9.41 165 162 152
0.861917 2.27212 9.41 165 162 152
0.872217 2.27212 9.41 160 157 147
0.883455 2.27454 9.42 159 158 150
0.894715 2.27695 9.43 161 160 152
0.905037 2.27695 9.43 159 158 150
0.915359 2.27695 9.43 158 157 149
0.926663 2.27937 9.44 155 156 148
0.937989 2.28178 9.45 156 157 149
0.948333 2.28178 9.45 157 158 150
0.959691 2.2842 9.46 156 157 149
0.970046 2.2842 9.46 156 157 149
0.981437 2.28661 9.47 157 158 150
0.992851 2.28902 9.48 149 149 143
1.00429 2.29144 9.49 148 148 142
1.01681 2.29627 9.51 148 148 142
1.02938 2.3011 9.53 147 147 141
1.0409 2.30351 9.54 144 146 140
1.05465 2.31076 9.57 147 149 143
1.06624 2.31317 9.58 137 138 135
1.07785 2.31558 9.59 124 125 122
1.09062 2.32041 9.61 108 112 112
1.12685 2.33007 9.65 134 137 140
1.13859 2.33249 9.66 137 136 140
1.15154 2.33732 9.68 140 139 143
1.16454 2.34214 9.7 155 153 154
1.17637 2.34456 9.71 154 152 153
1.18944 2.34939 9.73 156 155 152
1.20256 2.35422 9.75 162 161 158
1.21447 2.35663 9.76 164 164 158
1.22641 2.35905 9.77 164 164 158
1.23711 2.35905 9.77 168 168 162
1.2478 2.35905 9.77 160 160 154
1.2585 2.35905 9.77 164 160 153
1.26789 2.35663 9.76 168 164 157
1.27857 2.35663 9.76 166 162 155
1.28794 2.35422 9.75 170 166 159
1.29861 2.35422 9.75 172 168 161
1.30928 2.35422 9.75 167 163 156
1.31995 2.35422 9.75 170 166 159
1.32926 2.3518 9.74 178 174 167
1.33992 2.3518 9.74 175 169 162
1.3492 2.34939 9.73 175 169 162
1.35985 2.34939 9.73 177 172 162
1.36909 2.34697 9.72 176 171 161
1.37973 2.34697 9.72 172 167 157
1.39037 2.34697 9.72 172 167 157
1.39957 2.34456 9.71 168 164 157
1.4102 2.34456 9.71 172 168 161
1.42082 2.34456 9.71 153 151 145
0.368659 2.42554 10 133 139 139
0.379225 2.42311 9.99 131 137 137
0.38977 2.42069 9.98 131 137 137
0.400694 2.42069 9.98 128 134 134
0.411618 2.42069 9.98 111 117 117
0.421695 2.41583 9.96 113 119 119
0.432163 2.41341 9.95 119 125 125
0.442164 2.40856 9.93 123 129 129
0.451664 2.40128 9.9 137 141 141
0.461567 2.39643 9.88 149 153 153
0 0 0 146 146 146
0.480262 2.38188 9.82 149 149 149
0.49001 2.37703 9.8 149 148 145
0.499205 2.36975 9.77 153 152 149
0.508855 2.3649 9.75 157 156 153
0.518462 2.36005 9.73 159 158 155
0.528568 2.35762 9.72 158 160 154
0.538098 2.35277 9.7 154 156 150
0.54815 2.35034 9.69 154 156 150
0.557027 2.34307 9.66 153 155 149
0.567013 2.34064 9.65 153 155 149
0.576379 2.33579 9.63 152 154 148
0.585701 2.33094 9.61 150 152 146
0.59498 2.32609 9.59 149 151 145
0.604214 2.32124 9.57 151 150 142
0.614047 2.31881 9.56 114 113 105
0.623205 2.31396 9.54 122 120 108
0.632983 2.31154 9.53 171 169 157
0.64274 2.30911 9.52 173 171 157
0.652474 2.30668 9.51 171 169 155
0.662884 2.30668 9.51 167 165 151
0.672585 2.30426 9.5 171 169 155
0.682265 2.30183 9.49 169 170 157
0.692653 2.30183 9.49 166 167 154
0.703041 2.30183 9.49 166 167 154
0.712677 2.29941 9.48 164 165 152
0.722291 2.29698 9.47 163 164 151
0.731883 2.29456 9.46 163 164 151
0.742238 2.29456 9.46 164 164 153
0.751797 2.29213 9.45 163 163 152
0.762141 2.29213 9.45 162 164 153
0.772485 2.29213 9.45 161 163 152
0.782001 2.28971 9.44 164 164 153
0.792334 2.28971 9.44 162 162 151
0.801817 2.28728 9.43 161 161 150
0.812139 2.28728 9.43 161 161 150
0.823333 2.28971 9.44 163 160 150
0.832783 2.28728 9.43 161 158 148
0.843105 2.28728 9.43 160 157 147
0.853427 2.28728 9.43 161 158 148
0.863749 2.28728 9.43 159 159 148
0.874071 2.28728 9.43 157 157 146
0.885331 2.28971 9.44 158 158 147
0.895664 2.28971 9.44 157 157 146
0.905997 2.28971 9.44 153 154 146
0.91633 2.28971 9.44 153 154 146
0.927645 2.29213 9.45 154 155 147
0.938981 2.29456 9.46 155 156 148
0.949336 2.29456 9.46 155 156 148
0.960706 2.29698 9.47 154 155 147
0.972097 2.29941 9.48 154 154 148
0.98351 2.30183 9.49 153 153 147
0.994945 2.30426 9.5 149 149 143
1.0064 2.30668 9.51 148 148 142
1.01895 2.31154 9.53 145 147 141
1.03046 2.31396 9.54 145 147 141
1.04309 2.31881 9.56 146 148 142
1.05576 2.32366 9.58 138 140 134
1.06847 2.32851 9.6 114 118 118
1.16694 2.35762 9.72 139 137 143
1.17879 2.36005 9.73 144 142 148
1.19189 2.3649 9.75 142 142 142
1.20379 2.36732 9.76 142 142 142
1.21696 2.37217 9.78 142 144 138
1.22767 2.37217 9.78 165 167 161
1.23964 2.3746 9.79 153 156 148
1.24908 2.37217 9.78 155 158 150
1.25978 2.37217 9.78 157 156 148
1.27049 2.37217 9.78 164 163 155
1.28119 2.37217 9.78 166 165 157
1.29058 2.36975 9.77 166 165 157
1.30127 2.36975 9.77 170 169 161
1.31197 2.36975 9.77 170 169 161
1.32131 2.36732 9.76 173 171 165
1.33199 2.36732 9.76 166 164 158
1.34267 2.36732 9.76 170 168 162
1.35197 2.3649 9.75 170 168 162
1.36264 2.3649 9.75 157 156 148
1.37332 2.3649 9.75 162 161 153
1.38257 2.36247 9.74 154 153 145
1.39323 2.36247 9.74 153 152 144
1.40245 2.36005 9.73 144 145 137
0.378086 2.42674 9.96 132 137 140
0.388988 2.42674 9.96 130 139 138
0.400292 2.42918 9.97 135 144 143
0.410793 2.42674 9.96 121 130 129
0.421272 2.42431 9.95 118 127 126
0.431729 2.42187 9.94 131 140 139
0.442164 2.41943 9.93 123 132 131
0.452121 2.41456 9.91 127 133 133
0.461567 2.40725 9.88 139 145 145
0.471425 2.40238 9.86 113 117 116
0.48124 2.39751 9.84 128 132 131
0.49051 2.3902 9.81 161 160 157
0.500227 2.38532 9.79 155 154 151
0.509377 2.37801 9.76 157 156 153
0.519527 2.37558 9.75 159 158 155
0.529112 2.3707 9.73 158 159 156
0.539208 2.36827 9.72 155 156 153
0.548716 2.3634 9.7 155 156 153
0.55818 2.35852 9.68 155 156 153
0.567601 2.35365 9.66 153 154 151
0.576978 2.34878 9.64 154 155 152
0.586311 2.3439 9.62 152 154 148
0.59622 2.34147 9.61 152 154 148
0.604845 2.33416 9.58 151 152 144
0.614689 2.33172 9.57 146 147 139
0.623858 2.32685 9.55 118 118 107
0.633647 2.32441 9.54 122 122 111
0.643415 2.32197 9.53 157 155 143
0.65316 2.31954 9.52 177 175 163
0.662884 2.3171 9.51 170 171 158
0.673293 2.3171 9.51 169 170 157
0.682984 2.31467 9.5 169 170 157
0.693383 2.31467 9.5 169 170 157
0.703782 2.31467 9.5 168 169 156
0.713428 2.31223 9.49 164 165 152
0.723054 2.30979 9.48 163 163 152
0.73343 2.30979 9.48 163 163 152
0.743023 2.30736 9.47 161 163 152
0.753388 2.30736 9.47 161 163 152
0.762948 2.30492 9.46 159 161 150
0.773303 2.30492 9.46 161 163 152
0.782829 2.30248 9.45 161 162 154
0.793173 2.30248 9.45 160 161 153
0.803517 2.30248 9.45 161 160 152
0.813861 2.30248 9.45 161 160 152
0.824205 2.30248 9.45 161 160 152
0.834549 2.30248 9.45 159 158 150
0.844893 2.30248 9.45 158 157 149
0.855237 2.30248 9.45 158 157 149
0.865581 2.30248 9.45 158 157 149
0.875925 2.30248 9.45 159 158 150
0.886269 2.30248 9.45 159 158 150
0.897562 2.30492 9.46 158 157 149
0.907917 2.30492 9.46 154 155 147
0.918272 2.30492 9.46 151 152 144
0.928626 2.30492 9.46 151 151 145
0.940967 2.30979 9.48 152 152 146
0.951343 2.30979 9.48 154 154 148
0.962735 2.31223 9.49 153 153 147
0.973122 2.31223 9.49 151 151 145
0.984547 2.31467 9.5 149 149 143
0.995993 2.3171 9.51 147 147 141
1.00746 2.31954 9.52 146 146 140
1.02002 2.32441 9.54 144 146 140
1.03154 2.32685 9.55 149 151 145
1.04527 2.33416 9.58 131 131 131
1.05796 2.33903 9.6 125 125 125
1.20502 2.38045 9.77 126 130 130
1.21696 2.38289 9.78 135 135 135
1.22892 2.38532 9.79 143 143 143
1.23964 2.38532 9.79 133 134 131
1.25036 2.38532 9.79 146 147 144
1.25978 2.38289 9.78 144 143 140
1.27049 2.38289 9.78 142 141 138
1.28119 2.38289 9.78 156 155 152
1.2919 2.38289 9.78 149 148 145
1.30261 2.38289 9.78 153 150 147
1.31331 2.38289 9.78 156 153 150
1.32266 2.38045 9.77 168 167 164
1.33336 2.38045 9.77 144 143 140
1.34405 2.38045 9.77 152 151 148
1.35336 2.37801 9.76 149 148 145
1.36404 2.37801 9.76 144 143 140
1.37472 2.37801 9.76 145 144 141
1.38541 2.37801 9.76 133 132 129
0.388207 2.43276 9.94 128 139 138
0.399088 2.43276 9.94 128 139 138
0.409968 2.43276 9.94 123 134 133
0.420848 2.43276 9.94 126 137 136
0.43086 2.42786 9.92 128 139 138
0.441273 2.42542 9.91 129 140 139
0.451208 2.42052 9.89 129 138 137
0.461099 2.41563 9.87 129 138 137
0.470947 2.41073 9.85 121 127 127
0.480751 2.40584 9.83 128 134 134
0.49051 2.40094 9.81 161 160 157
0.500227 2.39605 9.79 161 160 157
0.509899 2.39115 9.77 157 157 151
0.52006 2.3887 9.76 159 159 153
0.5302 2.38626 9.75 157 159 153
0.539763 2.38136 9.73 154 156 150
0.549847 2.37892 9.72 154 156 150
0.559334 2.37402 9.7 155 157 151
0.568776 2.36913 9.68 155 157 151
0.578175 2.36423 9.66 154 156 150
0.58753 2.35934 9.64 153 155 149
0.596841 2.35444 9.62 149 151 145
0.606108 2.34955 9.6 147 148 140
0.615332 2.34465 9.58 152 153 145
0.624511 2.33976 9.56 134 134 123
0.634312 2.33731 9.55 114 114 103
0.64409 2.33486 9.54 120 121 108
0.653846 2.33241 9.53 151 152 139
0.664278 2.33241 9.53 182 182 171
0.674001 2.32997 9.52 180 180 169
0.683703 2.32752 9.51 171 171 160
0.694113 2.32752 9.51 169 169 158
0.703782 2.32507 9.5 166 166 155
0.71418 2.32507 9.5 164 164 153
0.724579 2.32507 9.5 163 163 152
0.734204 2.32262 9.49 162 162 151
0.744592 2.32262 9.49 163 165 154
0.754184 2.32018 9.48 162 164 153
0.764561 2.32018 9.48 156 157 149
0.774938 2.32018 9.48 160 161 153
0.784486 2.31773 9.47 161 162 154
0.794852 2.31773 9.47 159 160 152
0.805218 2.31773 9.47 157 158 150
0.815584 2.31773 9.47 157 158 150
0.825949 2.31773 9.47 161 160 152
0.835432 2.31528 9.46 159 158 150
0.846681 2.31773 9.47 158 157 149
0.857047 2.31773 9.47 158 157 149
0.867413 2.31773 9.47 161 160 152
0.877779 2.31773 9.47 161 160 152
0.889083 2.32018 9.48 156 157 149
0.899459 2.32018 9.48 155 156 148
0.909836 2.32018 9.48 154 154 148
0.920213 2.32018 9.48 151 151 145
0.931571 2.32262 9.49 149 149 143
0.941959 2.32262 9.49 149 149 143
0.952347 2.32262 9.49 152 152 146
0.963749 2.32507 9.5 151 151 145
0.975173 2.32752 9.51 148 148 142
0.985583 2.32752 9.51 147 147 141
0.998087 2.33241 9.53 144 145 142
1.00958 2.33486 9.54 144 145 142
1.02109 2.33731 9.55 143 143 143
1.0337 2.3422 9.57 142 142 142
1.04636 2.3471 9.59 101 101 102
1.26107 2.39605 9.79 126 126 126
1.27179 2.39605 9.79 129 129 129
1.28119 2.3936 9.78 126 126 126
1.2919 2.3936 9.78 136 136 136
1.30261 2.3936 9.78 148 146 147
1.31331 2.3936 9.78 140 138 139
1.32402 2.3936 9.78 145 143 144
1.33472 2.3936 9.78 138 136 137
1.34543 2.3936 9.78 138 138 139
0.398686 2.44119 9.93 133 144 143
0.409556 2.44119 9.93 124 135 134
0.420002 2.43873 9.92 122 133 132
0.430426 2.43627 9.91 130 141 140
0.441273 2.43627 9.91 129 140 139
0.451208 2.43135 9.89 131 140 139
0.461099 2.42644 9.87 138 147 146
0.470947 2.42152 9.85 137 146 144
0.48124 2.41906 9.84 123 132 130
0.49101 2.41415 9.82 146 145 142
0.500738 2.40923 9.8 160 159 156
0.510943 2.40677 9.79 156 155 152
0.521126 2.40431 9.78 155 154 151
0.530744 2.3994 9.76 154 155 152
0.540872 2.39694 9.75 153 154 151
0.550979 2.39448 9.74 153 154 151
0.560487 2.38956 9.72 154 155 152
0.569951 2.38465 9.7 154 155 152
0.579372 2.37973 9.68 154 155 152
0.588749 2.37481 9.66 153 154 151
0.597461 2.36744 9.63 153 154 151
0.60674 2.36252 9.61 152 154 148
0.615974 2.3576 9.59 153 155 149
0.625818 2.35514 9.58 159 160 152
0.634976 2.35023 9.56 153 154 146
0.644765 2.34777 9.55 121 123 112
0.655218 2.34777 9.55 114 116 105
0.664975 2.34531 9.54 127 128 120
0.675417 2.34531 9.54 167 168 160
0.685141 2.34285 9.53 178 179 171
0.695572 2.34285 9.53 164 165 157
0.705263 2.34039 9.52 161 162 154
0.714932 2.33794 9.51 164 165 157
0.725342 2.33794 9.51 168 169 161
0.734978 2.33548 9.5 163 164 156
0.745376 2.33548 9.5 164 165 157
0.755775 2.33548 9.5 163 164 156
0.765367 2.33302 9.49 152 153 145
0.775755 2.33302 9.49 159 160 152
0.786143 2.33302 9.49 159 160 152
0.796531 2.33302 9.49 156 157 149
0.806918 2.33302 9.49 157 158 150
0.817306 2.33302 9.49 157 158 150
0.827694 2.33302 9.49 158 157 149
0.838082 2.33302 9.49 154 153 145
0.848469 2.33302 9.49 156 155 147
0.858857 2.33302 9.49 156 155 147
0.869245 2.33302 9.49 158 157 149
0.879633 2.33302 9.49 158 157 149
0.890958 2.33548 9.5 152 152 146
0.901357 2.33548 9.5 152 152 146
0.911756 2.33548 9.5 153 152 149
0.922154 2.33548 9.5 152 151 148
0.932553 2.33548 9.5 151 150 147
0.943944 2.33794 9.51 149 148 145
0.954354 2.33794 9.51 148 147 144
0.965778 2.34039 9.52 148 147 144
0.977224 2.34285 9.53 145 146 143
0.988692 2.34531 9.54 145 146 143
1.00018 2.34777 9.55 140 145 141
1.01064 2.34777 9.55 137 142 138
1.02323 2.35269 9.57 136 140 140
1.03586 2.3576 9.59 128 132 132
0.408731 2.44713 9.91 126 137 136
0.419578 2.44713 9.91 117 128 127
0.430426 2.44713 9.91 131 142 141
0.440828 2.44466 9.9 124 135 134
0.450752 2.43972 9.88 124 135 134
0.461099 2.43725 9.87 128 139 138
0.470947 2.43231 9.85 131 140 138
0.48124 2.42984 9.84 112 121 119
0.49101 2.4249 9.82 124 125 122
0.501248 2.42243 9.81 152 153 150
0.510943 2.41749 9.79 159 159 153
0.521126 2.41502 9.78 154 154 148
0.531287 2.41256 9.77 152 154 148
0.541427 2.41009 9.76 153 155 149
0.551544 2.40762 9.75 155 156 153
0.561064 2.40268 9.73 154 155 152
0.570539 2.39774 9.71 153 154 151
0.57997 2.3928 9.69 153 154 151
0.589358 2.38786 9.67 153 154 151
0.598702 2.38292 9.65 152 153 150
0.608002 2.37798 9.63 151 153 147
0.617259 2.37305 9.61 149 151 145
0.626471 2.36811 9.59 151 153 147
0.636304 2.36564 9.58 157 159 153
0.646115 2.36317 9.57 146 147 139
0.655905 2.3607 9.56 133 134 126
0.665672 2.35823 9.55 117 118 110
0.676125 2.35823 9.55 123 124 116
0.68586 2.35576 9.54 163 163 157
0.696302 2.35576 9.54 176 176 170
0.706004 2.35329 9.53 166 167 159
0.716436 2.35329 9.53 161 162 154
0.726867 2.35329 9.53 171 172 164
0.736525 2.35082 9.52 168 169 161
0.746946 2.35082 9.52 166 167 159
0.756571 2.34835 9.51 163 164 156
0.76698 2.34835 9.51 149 150 142
0.77739 2.34835 9.51 157 158 150
0.7878 2.34835 9.51 159 160 152
0.79737 2.34588 9.5 157 158 150
0.807769 2.34588 9.5 158 157 149
0.819029 2.34835 9.51 159 158 150
0.829438 2.34835 9.51 157 156 148
0.839848 2.34835 9.51 155 154 146
0.850258 2.34835 9.51 153 152 144
0.860667 2.34835 9.51 153 152 144
0.871077 2.34835 9.51 153 152 144
0.881486 2.34835 9.51 153 152 144
0.891896 2.34835 9.51 152 152 146
0.903255 2.35082 9.52 152 152 146
0.913675 2.35082 9.52 153 152 149
0.924096 2.35082 9.52 151 150 147
0.935498 2.35329 9.53 151 150 147
0.945929 2.35329 9.53 149 148 145
0.956361 2.35329 9.53 144 143 140
0.967807 2.35576 9.54 140 139 136
0.978249 2.35576 9.54 140 141 138
0.989728 2.35823 9.55 144 145 142
1.00228 2.36317 9.57 135 139 138
1.01275 2.36317 9.57 129 133 132
1.02537 2.36811 9.59 128 130 135
1.03802 2.37305 9.61 104 106 111
0.418731 2.45302 9.89 110 118 120
0.429557 2.45302 9.89 121 131 133
0.439937 2.45054 9.88 122 132 134
0.450296 2.44806 9.87 119 129 131
0.460632 2.44558 9.86 116 126 128
0.470947 2.4431 9.85 119 128 127
0.48124 2.44062 9.84 122 131 130
0.49101 2.43566 9.82 116 121 117
0.501248 2.43318 9.81 126 131 127
0.511465 2.4307 9.8 145 147 141
0.521659 2.42822 9.79 153 155 149
0.531831 2.42574 9.78 151 153 147
0.541982 2.42326 9.77 152 154 148
0.55211 2.42078 9.76 152 152 152
0.562217 2.4183 9.75 153 153 153
0.571714 2.41334 9.73 153 153 153
0.581167 2.40838 9.71 153 153 153
0.590577 2.40341 9.69 151 151 151
0.599943 2.39845 9.67 151 151 151
0.609265 2.39349 9.65 151 152 149
0.636968 2.37861 9.59 145 147 141
0.646791 2.37613 9.58 146 148 142
0.657277 2.37613 9.58 149 151 145
0.667066 2.37365 9.57 146 149 141
0.676833 2.37117 9.56 125 128 120
0.686579 2.36869 9.55 130 130 124
0.697032 2.36869 9.55 140 140 134
0.707486 2.36869 9.55 171 171 165
0.717187 2.36621 9.54 169 169 163
0.72763 2.36621 9.54 164 165 157
0.738072 2.36621 9.54 162 163 155
0.74773 2.36373 9.53 166 167 159
0.758162 2.36373 9.53 167 168 160
0.768593 2.36373 9.53 162 163 155
0.779025 2.36373 9.53 161 162 154
0.789456 2.36373 9.53 160 161 153
0.799888 2.36373 9.53 154 155 147
0.810319 2.36373 9.53 151 150 142
0.820751 2.36373 9.53 153 152 144
0.831183 2.36373 9.53 153 152 144
0.841614 2.36373 9.53 159 158 150
0.852046 2.36373 9.53 160 156 149
0.863382 2.36621 9.54 156 152 145
0.873825 2.36621 9.54 151 150 142
0.884267 2.36621 9.54 153 152 144
0.89471 2.36621 9.54 153 151 145
0.905152 2.36621 9.54 148 146 140
0.915595 2.36621 9.54 149 148 145
0.926037 2.36621 9.54 149 148 145
0.937461 2.36869 9.55 147 146 143
0.947915 2.36869 9.55 147 146 143
0.958368 2.36869 9.55 142 143 140
0.968821 2.36869 9.55 140 141 138
0.981326 2.37365 9.57 135 140 136
0.991801 2.37365 9.57 135 140 136
1.00332 2.37613 9.58 120 126 126
1.01487 2.37861 9.59 119 125 125
1.0275 2.38357 9.61 113 117 122
0.439492 2.45887 9.87 112 121 125
0.449839 2.45638 9.86 119 129 131
0.460165 2.45389 9.85 121 131 133
0.470469 2.4514 9.84 121 132 131
0.480751 2.44891 9.83 120 131 130
