ply
format ascii 1.0
comment Created by Open3D
element vertex 1426
property double x
property double y
property double z
property uchar red
property uchar green
property uchar blue
end_header
-0.651682 2.49131 9.87 163 169 168
-0.640229 2.48878 9.86 163 169 168
-0.628798 2.48626 9.85 161 167 166
-0.616761 2.48121 9.83 161 167 166
-0.605385 2.47868 9.82 161 168 164
-0.59403 2.47616 9.81 162 169 165
-0.582103 2.47111 9.79 162 169 165
-0.571387 2.47111 9.79 163 170 166
-0.560671 2.47111 9.79 163 170 166
-0.549955 2.47111 9.79 163 170 166
-0.539239 2.47111 9.79 162 169 165
-0.528523 2.47111 9.79 161 168 164
-0.517806 2.47111 9.79 161 168 164
-0.507608 2.47364 9.8 160 167 163
-0.497388 2.47616 9.81 159 166 162
-0.48665 2.47616 9.81 159 166 162
-0.476397 2.47868 9.82 161 168 164
-0.465648 2.47868 9.82 160 167 163
-0.454899 2.47868 9.82 159 166 162
-0.443698 2.47616 9.81 159 166 162
-0.432519 2.47364 9.8 159 166 162
-0.422222 2.47616 9.81 161 168 164
-0.411065 2.47364 9.8 162 169 165
-0.399929 2.47111 9.79 161 168 164
-0.389213 2.47111 9.79 161 168 164
-0.378497 2.47111 9.79 161 168 164
-0.367781 2.47111 9.79 161 168 164
-0.357429 2.47364 9.8 161 168 164
-0.347056 2.47616 9.81 161 167 166
-0.336318 2.47616 9.81 160 166 165
-0.32558 2.47616 9.81 157 163 162
-0.315163 2.47868 9.82 160 166 165
-0.304414 2.47868 9.82 162 168 167
-0.293964 2.48121 9.83 163 169 168
-0.283204 2.48121 9.83 163 169 168
-0.272721 2.48373 9.84 163 169 168
-0.26195 2.48373 9.84 162 171 169
-0.251179 2.48373 9.84 162 171 169
-0.240653 2.48626 9.85 162 171 169
-0.229871 2.48626 9.85 160 169 167
-0.219312 2.48878 9.86 160 169 167
-0.20873 2.49131 9.87 160 169 167
-0.198127 2.49383 9.88 160 166 165
-0.187312 2.49383 9.88 161 167 166
-0.176498 2.49383 9.88 162 168 167
-0.165851 2.49635 9.89 162 168 167
-0.155182 2.49888 9.9 162 168 167
-0.144345 2.49888 9.9 163 169 168
-0.133509 2.49888 9.9 162 171 169
-0.122548 2.49635 9.89 160 169 167
-0.11161 2.49383 9.88 159 168 166
-0.100693 2.49131 9.87 159 168 166
-0 0 0 160 169 167
-0.0789256 2.48626 9.85 161 170 168
-0.0680746 2.48373 9.84 161 170 168
-0.0571872 2.47868 9.82 159 168 166
-0.046391 2.47616 9.81 158 167 165
-0.0356166 2.47364 9.8 158 167 165
-0.0248641 2.47111 9.79 158 167 165
-0.014148 2.47111 9.79 159 168 166
-0.00343186 2.47111 9.79 159 168 166
0.00728428 2.47111 9.79 160 169 167
0.0180004 2.47111 9.79 160 169 167
0.0287166 2.47111 9.79 160 169 167
0.0394327 2.47111 9.79 160 169 167
0.0500976 2.46859 9.78 160 169 167
0.0608028 2.46859 9.78 160 169 167
0.071508 2.46859 9.78 159 168 166
0.0822132 2.46859 9.78 161 167 166
0.0929184 2.46859 9.78 162 168 167
0.103624 2.46859 9.78 162 168 167
0.114329 2.46859 9.78 161 167 166
0.125034 2.46859 9.78 161 167 166
0.135739 2.46859 9.78 160 166 165
0.146444 2.46859 9.78 160 166 165
0.15715 2.46859 9.78 160 166 165
0.168026 2.47111 9.79 160 166 165
0.178742 2.47111 9.79 159 165 164
0.189459 2.47111 9.79 154 160 159
0.200175 2.47111 9.79 166 172 171
0.210891 2.47111 9.79 162 168 167
0.221607 2.47111 9.79 161 167 166
0.232323 2.47111 9.79 161 167 166
0.242791 2.46859 9.78 162 168 167
0.253496 2.46859 9.78 162 168 167
0.264201 2.46859 9.78 160 166 165
0.274626 2.46606 9.77 159 165 164
0.285028 2.46354 9.76 157 163 162
0.295408 2.46102 9.75 155 164 162
0.30608 2.46102 9.75 155 164 162
0.316753 2.46102 9.75 153 162 160
0.326753 2.45597 9.73 153 162 160
0.337404 2.45597 9.73 151 160 158
0.348054 2.45597 9.73 148 157 155
0.358336 2.45344 9.72 147 156 154
0.368976 2.45344 9.72 147 156 154
0.379615 2.45344 9.72 144 153 151
0.390255 2.45344 9.72 140 149 147
0.400894 2.45344 9.72 140 149 147
0.411957 2.45597 9.73 142 151 149
0.422608 2.45597 9.73 142 151 149
0.433258 2.45597 9.73 140 149 147
0.443909 2.45597 9.73 138 149 147
0.455026 2.45849 9.74 133 144 142
0.465688 2.45849 9.74 134 145 143
0.476838 2.46102 9.75 138 149 147
0.48751 2.46102 9.75 134 145 143
0.498694 2.46354 9.76 124 135 133
0.509899 2.46606 9.77 121 132 131
0.521126 2.46859 9.78 126 137 136
0.532919 2.47364 9.8 128 139 138
0.544755 2.47868 9.82 121 132 131
0.556636 2.48373 9.84 122 133 132
0.567407 2.48373 9.84 119 130 129
0.578765 2.48626 9.85 119 130 129
0.590744 2.49131 9.87 117 128 127
0.601548 2.49131 9.87 114 125 124
0.611731 2.48878 9.86 114 125 124
0.621892 2.48626 9.85 108 117 116
0.632032 2.48373 9.84 105 114 113
0.641496 2.47868 9.82 89 98 97
0.651581 2.47616 9.81 95 104 103
0.661644 2.47364 9.8 102 108 108
0.671685 2.47111 9.79 95 101 101
0.681007 2.46606 9.77 87 95 97
0.690993 2.46354 9.76 95 103 105
0.701676 2.46354 9.76 98 106 108
0.71163 2.46102 9.75 96 104 106
0.722302 2.46102 9.75 95 102 106
0.732974 2.46102 9.75 91 98 102
0.743647 2.46102 9.75 93 100 104
0.755093 2.46354 9.76 95 102 106
0.765776 2.46354 9.76 95 102 106
0.77646 2.46354 9.76 96 103 107
0.787143 2.46354 9.76 96 104 106
0.797826 2.46354 9.76 97 105 107
0.808509 2.46354 9.76 101 111 113
0.820032 2.46606 9.77 102 112 114
0.830726 2.46606 9.77 103 112 116
0.841421 2.46606 9.77 102 111 115
0.851243 2.46354 9.76 103 112 116
0.861926 2.46354 9.76 107 116 120
0.872609 2.46354 9.76 99 108 112
0.883292 2.46354 9.76 110 119 123
0.893976 2.46354 9.76 110 119 123
0.904659 2.46354 9.76 110 119 123
0.915342 2.46354 9.76 110 121 125
0.926026 2.46354 9.76 112 123 127
0.936709 2.46354 9.76 111 122 126
0.949334 2.46859 9.78 108 119 123
0.96102 2.47111 9.79 124 135 139
0.971737 2.47111 9.79 120 131 135
0.982453 2.47111 9.79 115 126 130
0.993169 2.47111 9.79 117 128 132
1.00388 2.47111 9.79 118 129 133
1.01564 2.47364 9.8 115 126 130
1.02532 2.47111 9.79 115 126 130
1.03603 2.47111 9.79 115 126 130
1.04675 2.47111 9.79 115 126 130
1.05747 2.47111 9.79 115 126 130
1.06818 2.47111 9.79 117 128 132
1.08 2.47364 9.8 117 128 132
1.09073 2.47364 9.8 119 128 132
1.10145 2.47364 9.8 117 126 130
1.11332 2.47616 9.81 120 129 133
1.12405 2.47616 9.81 121 130 134
1.13479 2.47616 9.81 123 132 136
1.14553 2.47616 9.81 124 133 137
1.15627 2.47616 9.81 124 133 137
1.16582 2.47364 9.8 123 132 136
1.17654 2.47364 9.8 123 132 136
1.18606 2.47111 9.79 124 133 137
1.19678 2.47111 9.79 121 132 136
1.20626 2.46859 9.78 122 133 137
1.21821 2.47111 9.79 122 133 137
1.22892 2.47111 9.79 121 132 136
1.23964 2.47111 9.79 121 132 136
1.25036 2.47111 9.79 121 132 136
1.26236 2.47364 9.8 120 134 137
1.27439 2.47616 9.81 120 134 137
1.28512 2.47616 9.81 119 133 136
1.29718 2.47868 9.82 122 136 139
1.30793 2.47868 9.82 120 134 137
1.32002 2.48121 9.83 122 136 139
1.33214 2.48373 9.84 125 137 139
1.34291 2.48373 9.84 126 138 140
1.35368 2.48373 9.84 126 138 140
1.36445 2.48373 9.84 127 139 141
1.37522 2.48373 9.84 128 138 140
1.38599 2.48373 9.84 129 139 141
1.39676 2.48373 9.84 130 140 142
1.4061 2.48121 9.83 133 143 145
1.41686 2.48121 9.83 135 145 147
1.42617 2.47868 9.82 137 147 149
1.43692 2.47868 9.82 137 147 149
1.4462 2.47616 9.81 138 148 150
1.45693 2.47616 9.81 140 150 152
1.46468 2.47111 9.79 140 150 152
1.4754 2.47111 9.79 140 150 152
1.48459 2.46859 9.78 144 154 156
1.4953 2.46859 9.78 145 155 157
1.50292 2.46354 9.76 146 156 158
1.51361 2.46354 9.76 146 157 156
1.52273 2.46102 9.75 146 157 156
1.5334 2.46102 9.75 148 157 156
1.54407 2.46102 9.75 148 157 156
1.55315 2.45849 9.74 155 164 162
1.56381 2.45849 9.74 151 160 158
1.57286 2.45597 9.73 147 156 154
1.58351 2.45597 9.73 147 156 154
1.59416 2.45597 9.73 150 159 157
1.60481 2.45597 9.73 148 157 155
1.61546 2.45597 9.73 145 154 152
1.62778 2.45849 9.74 147 156 154
1.64012 2.46102 9.75 145 156 154
1.6508 2.46102 9.75 145 156 154
1.66147 2.46102 9.75 146 157 155
1.67214 2.46102 9.75 146 157 155
1.68281 2.46102 9.75 146 157 155
1.69522 2.46354 9.76 146 157 155
1.70591 2.46354 9.76 147 156 154
1.71483 2.46102 9.75 148 157 155
1.7255 2.46102 9.75 151 160 158
1.73618 2.46102 9.75 152 161 159
1.74685 2.46102 9.75 150 161 159
1.75752 2.46102 9.75 150 161 159
1.76819 2.46102 9.75 150 161 159
1.77887 2.46102 9.75 148 159 157
1.78954 2.46102 9.75 144 157 155
1.80021 2.46102 9.75 144 157 155
1.81088 2.46102 9.75 144 157 155
1.82342 2.46354 9.76 144 157 155
1.83223 2.46102 9.75 144 157 155
1.84479 2.46354 9.76 144 157 155
1.85547 2.46354 9.76 144 157 155
1.86616 2.46354 9.76 143 156 154
1.87876 2.46606 9.77 142 155 153
1.89139 2.46859 9.78 143 156 154
1.90599 2.47364 9.8 149 160 158
1.91867 2.47616 9.81 149 160 158
1.93137 2.47868 9.82 148 159 157
1.9441 2.48121 9.83 148 159 157
1.95685 2.48373 9.84 146 157 155
1.96762 2.48373 9.84 144 155 153
1.97839 2.48373 9.84 145 156 155
1.98714 2.48121 9.83 146 157 156
1.99587 2.47868 9.82 151 160 159
2.00662 2.47868 9.82 152 161 160
2.01531 2.47616 9.81 152 161 160
2.02398 2.47364 9.8 148 157 156
2.03056 2.46859 9.78 146 155 154
2.04126 2.46859 9.78 146 155 154
2.05197 2.46859 9.78 148 154 154
2.06056 2.46606 9.77 150 156 156
2.06914 2.46354 9.76 148 157 156
2.07982 2.46354 9.76 148 157 156
2.08836 2.46102 9.75 148 157 155
2.09904 2.46102 9.75 151 160 158
2.10971 2.46102 9.75 148 157 155
2.12038 2.46102 9.75 147 156 154
2.13105 2.46102 9.75 148 158 153
2.14173 2.46102 9.75 148 158 153
2.1524 2.46102 9.75 147 156 154
2.16307 2.46102 9.75 147 156 154
2.17374 2.46102 9.75 145 156 154
2.18441 2.46102 9.75 146 157 155
2.19509 2.46102 9.75 146 157 155
2.20576 2.46102 9.75 145 156 154
2.21643 2.46102 9.75 145 156 155
2.2271 2.46102 9.75 144 155 154
2.23778 2.46102 9.75 142 153 152
2.24845 2.46102 9.75 145 156 155
2.25912 2.46102 9.75 145 156 155
2.26747 2.45849 9.74 145 156 155
2.27813 2.45849 9.74 144 155 154
2.28879 2.45849 9.74 146 157 156
2.29945 2.45849 9.74 144 155 154
2.31011 2.45849 9.74 144 155 154
2.32077 2.45849 9.74 145 156 155
2.32904 2.45597 9.73 143 154 153
2.33969 2.45597 9.73 143 154 153
2.35034 2.45597 9.73 144 155 154
2.36099 2.45597 9.73 143 154 153
2.3692 2.45344 9.72 143 154 153
2.37984 2.45344 9.72 143 154 153
2.39048 2.45344 9.72 142 153 152
2.39865 2.45092 9.71 143 154 153
2.40928 2.45092 9.71 145 156 155
2.41742 2.4484 9.7 145 156 155
2.42804 2.4484 9.7 144 155 154
2.43865 2.4484 9.7 143 154 153
2.4518 2.45092 9.71 143 154 153
2.46242 2.45092 9.71 143 154 153
2.47305 2.45092 9.71 143 154 153
2.48368 2.45092 9.71 143 154 153
2.49688 2.45344 9.72 143 154 153
2.50752 2.45344 9.72 143 154 153
2.51816 2.45344 9.72 143 154 153
2.5288 2.45344 9.72 144 155 154
2.53944 2.45344 9.72 143 154 153
2.5527 2.45597 9.73 143 154 153
2.56335 2.45597 9.73 144 155 154
2.574 2.45597 9.73 142 155 154
2.58996 2.46102 9.75 143 156 155
2.60064 2.46102 9.75 143 156 155
2.61399 2.46354 9.76 134 147 146
2.62467 2.46354 9.76 136 149 148
2.64075 2.46859 9.78 126 139 138
2.65146 2.46859 9.78 116 127 126
2.66489 2.47111 9.79 105 116 115
2.6756 2.47111 9.79 92 95 98
2.68906 2.47364 9.8 104 107 110
2.70254 2.47616 9.81 105 111 111
2.71605 2.47868 9.82 97 103 103
2.7268 2.47868 9.82 97 106 104
2.74033 2.48121 9.83 103 112 110
2.75389 2.48373 9.84 103 114 112
2.76466 2.48373 9.84 103 114 112
2.77825 2.48626 9.85 102 113 111
2.7947 2.49131 9.87 101 112 110
2.80835 2.49383 9.88 98 109 107
2.82487 2.49888 9.9 96 107 105
2.84143 2.50393 9.92 95 106 104
2.85804 2.50897 9.94 93 104 102
2.87469 2.51402 9.96 103 112 111
-1.12901 2.5807 10.18 126 125 117
-1.11787 2.5807 10.18 122 125 117
-1.10673 2.5807 10.18 119 122 114
-1.09559 2.5807 10.18 113 120 111
-1.08551 2.58324 10.19 114 121 112
-1.07435 2.58324 10.19 114 121 112
-1.06424 2.58577 10.2 112 119 110
-1.05308 2.58577 10.2 112 118 111
-1.04191 2.58577 10.2 115 121 114
-1.03176 2.58831 10.21 113 119 112
-1.02058 2.58831 10.21 115 121 114
-1.0104 2.59084 10.22 118 120 114
-0.998231 2.58831 10.21 118 120 114
-0.987056 2.58831 10.21 117 119 113
-0.974924 2.58577 10.2 117 119 113
-0.963759 2.58577 10.2 117 119 113
-0.952594 2.58577 10.2 117 119 113
-0.939583 2.5807 10.18 117 119 113
-0.92844 2.5807 10.18 118 120 114
-0.916396 2.57817 10.17 119 121 115
-0.904374 2.57563 10.16 119 121 115
-0.892374 2.5731 10.15 118 120 114
-0.881263 2.5731 10.15 114 116 110
-0.869296 2.57056 10.14 112 113 110
-0.85735 2.56803 10.13 124 125 122
-0.844591 2.56296 10.11 142 142 142
-0.8327 2.56042 10.1 144 144 144
-0.820831 2.55789 10.09 162 166 165
-0.808182 2.55282 10.07 169 173 172
-0.795576 2.54775 10.05 160 166 165
-0.783794 2.54521 10.04 160 166 165
-0.771265 2.54014 10.02 160 166 165
-0.759538 2.53761 10.01 159 165 164
-0.747086 2.53254 9.99 157 163 162
-0.734677 2.52747 9.97 157 163 162
-0.723038 2.52493 9.96 159 165 164
-0.710706 2.51986 9.94 163 169 168
-0.699121 2.51733 9.93 163 169 168
-0.687559 2.51479 9.92 162 168 167
-0.675336 2.50972 9.9 162 168 167
-0.663828 2.50719 9.89 161 167 166
-0.651682 2.50212 9.87 160 166 165
-0.63958 2.49705 9.85 162 168 167
-0.62816 2.49451 9.84 160 166 165
-0.616134 2.48944 9.82 160 166 165
-0.604769 2.48691 9.81 161 167 166
-0.592819 2.48184 9.79 162 168 167
-0.581509 2.4793 9.78 162 169 165
-0.569636 2.47423 9.76 162 169 165
-0.558953 2.47423 9.76 162 169 165
-0.54827 2.47423 9.76 162 169 165
-0.537586 2.47423 9.76 162 169 165
-0.527443 2.47677 9.77 162 169 165
-0.516749 2.47677 9.77 162 169 165
-0.506572 2.4793 9.78 162 169 165
-0.495867 2.4793 9.78 162 169 165
-0.485162 2.4793 9.78 162 169 165
-0.474457 2.4793 9.78 163 170 166
-0.464226 2.48184 9.79 162 169 165
-0.453046 2.4793 9.78 160 167 163
-0.442341 2.4793 9.78 159 166 162
-0.431195 2.47677 9.77 159 166 162
-0.4205 2.47677 9.77 163 170 166
-0.409806 2.47677 9.77 163 170 166
-0.398703 2.47423 9.76 162 169 165
-0.38802 2.47423 9.76 160 167 163
-0.377337 2.47423 9.76 160 167 163
-0.366653 2.47423 9.76 159 169 164
-0.35597 2.47423 9.76 159 169 164
-0.345287 2.47423 9.76 157 167 162
-0.335289 2.4793 9.78 157 167 162
-0.324584 2.4793 9.78 155 164 162
-0.3142 2.48184 9.79 159 168 166
-0.303484 2.48184 9.79 160 169 167
-0.293067 2.48437 9.8 162 171 169
-0.282628 2.48691 9.81 160 169 167
-0.27189 2.48691 9.81 161 170 168
-0.261418 2.48944 9.82 160 169 167
-0.250669 2.48944 9.82 160 169 167
-0.23992 2.48944 9.82 159 168 166
-0.229171 2.48944 9.82 159 168 166
-0.218422 2.48944 9.82 162 169 165
-0.208096 2.49451 9.84 163 170 166
-0.197526 2.49705 9.85 157 164 160
-0.186744 2.49705 9.85 161 168 164
-0.175962 2.49705 9.85 162 169 165
-0.165348 2.49958 9.86 162 169 165
-0.154712 2.50212 9.87 161 168 164
-0.143908 2.50212 9.87 160 167 163
-0.133104 2.50212 9.87 163 169 168
-0.122301 2.50212 9.87 163 169 168
-0.111271 2.49705 9.85 160 169 167
-0.100387 2.49451 9.84 159 168 166
-0.0894342 2.48944 9.82 160 169 167
-0.0786051 2.48691 9.81 160 169 167
-0.067867 2.48691 9.81 161 170 168
-0.0570125 2.48184 9.79 159 168 166
-0.0462491 2.4793 9.78 159 168 166
-0.0355076 2.47677 9.77 158 167 165
-0.0248133 2.47677 9.77 159 168 166
-0.0141191 2.47677 9.77 160 169 167
-0.00342485 2.47677 9.77 160 169 167
0.0072694 2.47677 9.77 160 169 167
0.0179636 2.47677 9.77 159 168 166
0.0286579 2.47677 9.77 159 168 166
0.0393924 2.4793 9.78 159 168 166
0.0500464 2.47677 9.77 160 169 167
0.0607406 2.47677 9.77 160 169 167
0.0714349 2.47677 9.77 160 169 167
0.082045 2.47423 9.76 161 167 166
0.0927283 2.47423 9.76 162 168 167
0.103412 2.47423 9.76 162 168 167
0.114095 2.47423 9.76 162 168 167
0.124778 2.47423 9.76 162 168 167
0.135462 2.47423 9.76 162 168 167
0.146145 2.47423 9.76 161 167 166
0.156828 2.47423 9.76 161 167 166
0.167511 2.47423 9.76 161 167 166
0.178377 2.47677 9.77 161 167 166
0.188878 2.47423 9.76 161 167 166
0.199561 2.47423 9.76 162 168 167
0.210245 2.47423 9.76 149 155 154
0.220928 2.47423 9.76 157 163 162
0.231611 2.47423 9.76 161 167 166
0.242046 2.4717 9.75 162 168 167
0.252719 2.4717 9.75 162 168 167
0.263121 2.46916 9.74 162 168 167
0.273501 2.46663 9.73 161 167 166
0.284152 2.46663 9.73 160 166 165
0.294499 2.46409 9.72 161 167 166
0.305139 2.46409 9.72 161 167 166
0.315453 2.46156 9.71 158 167 165
0.326082 2.46156 9.71 158 167 165
0.336364 2.45902 9.7 154 163 161
0.346981 2.45902 9.7 152 161 159
0.357599 2.45902 9.7 151 160 158
0.368216 2.45902 9.7 151 160 158
0.378834 2.45902 9.7 146 155 153
0.389452 2.45902 9.7 139 148 146
0.400069 2.45902 9.7 140 149 147
0.41111 2.46156 9.71 144 153 151
0.421739 2.46156 9.71 143 152 150
0.432368 2.46156 9.71 142 151 149
0.443452 2.46409 9.72 137 148 146
0.454092 2.46409 9.72 135 146 144
0.464731 2.46409 9.72 133 144 142
0.475371 2.46409 9.72 135 146 144
0.48651 2.46663 9.73 135 146 144
0.498183 2.4717 9.75 128 139 137
0.509377 2.47423 9.76 128 139 137
0.520593 2.47677 9.77 133 144 142
0.532375 2.48184 9.79 128 139 138
0.544201 2.48691 9.81 123 134 133
0.555504 2.48944 9.82 127 138 137
0.567407 2.49451 9.84 127 138 137
0.578177 2.49451 9.84 123 134 133
0.589547 2.49705 9.85 120 131 130
0.600329 2.49705 9.85 120 131 129
0.61111 2.49705 9.85 116 127 125
0.62063 2.49198 9.83 119 128 126
0.630747 2.48944 9.82 121 130 128
0.64019 2.48437 9.8 116 125 123
0.650252 2.48184 9.79 115 124 122
0.660294 2.4793 9.78 116 125 124
0.669626 2.47423 9.76 121 130 129
0.68031 2.47423 9.76 111 120 119
0.690285 2.4717 9.75 117 126 125
0.700238 2.46916 9.74 110 121 120
0.7109 2.46916 9.74 110 121 120
0.721561 2.46916 9.74 108 119 118
0.732223 2.46916 9.74 102 113 112
0.742884 2.46916 9.74 109 120 119
0.754319 2.4717 9.75 108 119 118
0.764992 2.4717 9.75 101 112 111
0.775664 2.4717 9.75 109 120 119
0.786336 2.4717 9.75 113 124 123
0.797826 2.47423 9.76 115 126 125
0.808509 2.47423 9.76 114 125 124
0.819193 2.47423 9.76 112 123 122
0.829876 2.47423 9.76 112 122 124
0.840559 2.47423 9.76 113 123 125
0.851243 2.47423 9.76 112 122 124
0.861926 2.47423 9.76 107 117 119
0.871715 2.4717 9.75 108 118 120
0.882387 2.4717 9.75 116 126 128
0.89306 2.4717 9.75 115 127 129
0.903732 2.4717 9.75 110 122 124
0.914405 2.4717 9.75 117 128 132
0.925077 2.4717 9.75 120 131 135
0.935749 2.4717 9.75 115 126 130
0.947392 2.47423 9.76 107 118 122
0.959057 2.47677 9.77 119 130 134
0.969751 2.47677 9.77 119 130 134
0.981449 2.4793 9.78 118 129 133
0.992154 2.4793 9.78 117 128 132
1.00286 2.4793 9.78 117 128 132
1.01356 2.4793 9.78 117 128 132
1.02427 2.4793 9.78 117 128 132
1.03498 2.4793 9.78 118 129 133
1.04568 2.4793 9.78 118 129 133
1.05531 2.47677 9.77 118 129 133
1.06709 2.4793 9.78 118 129 133
1.0778 2.4793 9.78 120 131 135
1.08739 2.47677 9.77 121 130 134
1.09921 2.4793 9.78 121 130 134
1.10991 2.4793 9.78 121 130 134
1.12062 2.4793 9.78 122 131 135
1.13132 2.4793 9.78 124 133 137
1.14203 2.4793 9.78 124 133 137
1.15273 2.4793 9.78 124 133 137
1.16225 2.47677 9.77 124 133 137
1.17294 2.47677 9.77 124 133 137
1.18364 2.47677 9.77 124 133 137
1.19311 2.47423 9.76 124 133 137
1.20379 2.47423 9.76 127 136 140
1.21447 2.47423 9.76 124 135 139
1.22516 2.47423 9.76 120 131 135
1.23711 2.47677 9.77 118 132 135
1.2478 2.47677 9.77 120 134 137
1.25978 2.4793 9.78 120 134 137
1.27049 2.4793 9.78 122 136 139
1.2825 2.48184 9.79 123 137 140
1.29322 2.48184 9.79 124 138 141
1.3066 2.48691 9.81 124 139 140
1.31734 2.48691 9.81 125 140 141
1.32808 2.48691 9.81 124 139 140
1.33881 2.48691 9.81 125 140 141
1.34955 2.48691 9.81 128 140 142
1.36029 2.48691 9.81 129 141 143
1.37103 2.48691 9.81 129 139 141
1.38177 2.48691 9.81 131 141 143
1.3925 2.48691 9.81 133 143 145
1.40181 2.48437 9.8 134 144 146
1.41254 2.48437 9.8 135 145 147
1.42181 2.48184 9.79 138 148 150
1.43253 2.48184 9.79 137 147 149
1.44177 2.4793 9.78 140 150 152
1.45248 2.4793 9.78 141 151 153
1.46169 2.47677 9.77 142 152 154
1.47087 2.47423 9.76 145 155 157
1.48004 2.4717 9.75 144 154 156
1.49071 2.4717 9.75 146 157 156
1.49984 2.46916 9.74 148 159 158
1.50895 2.46663 9.73 148 159 158
1.51804 2.46409 9.72 148 159 158
1.52868 2.46409 9.72 150 159 158
1.53932 2.46409 9.72 150 159 158
1.54996 2.46409 9.72 152 161 159
1.5606 2.46409 9.72 148 157 155
1.56962 2.46156 9.71 147 156 154
1.57863 2.45902 9.7 150 159 157
1.58924 2.45902 9.7 151 160 158
1.59986 2.45902 9.7 150 159 157
1.61214 2.46156 9.71 148 157 155
1.62277 2.46156 9.71 147 156 154
1.6334 2.46156 9.71 146 155 153
1.64572 2.46409 9.72 146 155 153
1.65636 2.46409 9.72 148 157 155
1.667 2.46409 9.72 148 157 155
1.67764 2.46409 9.72 147 156 154
1.68828 2.46409 9.72 148 157 155
1.69892 2.46409 9.72 147 156 154
1.70955 2.46409 9.72 150 159 157
1.72019 2.46409 9.72 151 160 158
1.73083 2.46409 9.72 150 159 157
1.74147 2.46409 9.72 148 159 157
1.75211 2.46409 9.72 148 159 157
1.76275 2.46409 9.72 146 157 155
1.77339 2.46409 9.72 145 156 154
1.78403 2.46409 9.72 145 156 154
1.79282 2.46156 9.71 144 155 153
1.80345 2.46156 9.71 142 155 153
1.81595 2.46409 9.72 143 156 154
1.82471 2.46156 9.71 143 156 154
1.83534 2.46156 9.71 143 156 154
1.84787 2.46409 9.72 143 156 154
1.85851 2.46409 9.72 143 156 154
1.87107 2.46663 9.73 143 156 154
1.88365 2.46916 9.74 140 153 151
1.89626 2.4717 9.75 146 157 155
1.90889 2.47423 9.76 148 159 157
1.92154 2.47677 9.77 148 159 157
1.93619 2.48184 9.79 146 157 155
1.94691 2.48184 9.79 145 156 155
1.95762 2.48184 9.79 145 156 155
1.96834 2.48184 9.79 146 157 156
0 0 0 149 160 159
1.98774 2.4793 9.78 150 161 160
1.99844 2.4793 9.78 150 161 160
2.00915 2.4793 9.78 150 161 160
2.01572 2.47423 9.76 146 157 156
2.02641 2.47423 9.76 147 156 155
2.035 2.4717 9.75 147 156 155
2.04358 2.46916 9.74 147 156 155
2.05424 2.46916 9.74 147 156 155
2.06278 2.46663 9.73 147 156 155
2.07343 2.46663 9.73 148 157 156
2.08408 2.46663 9.73 148 157 156
2.09258 2.46409 9.72 151 160 159
2.10322 2.46409 9.72 150 159 157
2.11386 2.46409 9.72 148 157 155
2.1245 2.46409 9.72 148 157 155
2.13514 2.46409 9.72 148 157 155
2.14577 2.46409 9.72 148 158 153
2.15863 2.46663 9.73 147 157 152
2.16928 2.46663 9.73 147 156 154
2.17993 2.46663 9.73 147 156 154
2.19058 2.46663 9.73 146 157 155
2.20123 2.46663 9.73 145 156 154
2.21188 2.46663 9.73 145 156 155
2.22254 2.46663 9.73 142 153 152
2.23319 2.46663 9.73 140 151 150
2.24384 2.46663 9.73 144 155 154
2.25217 2.46409 9.72 144 155 154
2.26281 2.46409 9.72 145 156 155
2.27345 2.46409 9.72 145 156 155
2.28409 2.46409 9.72 145 156 155
2.29473 2.46409 9.72 144 155 154
2.30537 2.46409 9.72 146 157 156
2.31601 2.46409 9.72 145 156 155
2.32425 2.46156 9.71 143 154 153
2.33248 2.45902 9.7 142 153 152
2.34309 2.45902 9.7 144 155 154
2.35371 2.45902 9.7 146 157 156
2.36433 2.45902 9.7 146 157 156
2.3725 2.45649 9.69 145 156 155
2.38311 2.45649 9.69 141 152 151
2.39371 2.45649 9.69 143 154 153
2.40432 2.45649 9.69 146 157 156
2.41243 2.45395 9.68 146 157 156
2.42553 2.45649 9.69 145 156 155
2.43614 2.45649 9.69 140 153 152
2.44675 2.45649 9.69 140 153 152
2.45989 2.45902 9.7 139 152 151
2.46796 2.45649 9.69 141 154 153
2.48112 2.45902 9.7 142 155 154
2.49174 2.45902 9.7 141 154 153
2.50236 2.45902 9.7 140 153 152
2.51298 2.45902 9.7 139 152 151
2.52359 2.45902 9.7 140 153 152
2.53421 2.45902 9.7 139 152 151
2.54745 2.46156 9.71 141 154 152
2.55808 2.46156 9.71 139 152 150
2.57136 2.46409 9.72 147 160 158
2.58199 2.46409 9.72 146 159 157
2.5953 2.46663 9.73 134 146 148
2.60863 2.46916 9.74 113 125 127
2.62198 2.4717 9.75 113 126 125
2.63535 2.47423 9.76 98 111 110
2.64875 2.47677 9.77 100 109 108
2.66216 2.4793 9.78 104 113 112
2.6756 2.48184 9.79 105 110 113
2.68632 2.48184 9.79 106 111 114
2.70254 2.48691 9.81 105 110 113
2.71328 2.48691 9.81 102 107 110
2.72402 2.48691 9.81 102 108 108
2.73755 2.48944 9.82 104 110 110
2.75109 2.49198 9.83 104 113 112
2.76466 2.49451 9.84 102 111 110
2.77825 2.49705 9.85 100 111 109
2.79187 2.49958 9.86 98 109 107
2.80835 2.50465 9.88 96 107 105
2.82201 2.50719 9.89 96 107 105
2.83857 2.51226 9.91 95 106 104
2.85517 2.51733 9.93 93 104 102
2.86892 2.51986 9.94 98 109 108
-1.11568 2.58676 10.16 109 110 102
-1.10455 2.58676 10.16 132 133 125
-1.09343 2.58676 10.16 118 125 116
-1.08231 2.58676 10.16 114 121 112
-1.07225 2.58931 10.17 118 125 116
-1.06216 2.59185 10.18 112 119 110
-1.05101 2.59185 10.18 111 118 109
-1.04089 2.5944 10.19 111 118 109
-1.03075 2.59695 10.2 112 118 111
-1.01958 2.59695 10.2 114 120 113
-1.00842 2.59695 10.2 118 121 113
-0.997254 2.59695 10.2 117 120 112
-0.986089 2.59695 10.2 116 119 111
-0.974924 2.59695 10.2 117 120 112
-0.963759 2.59695 10.2 118 120 114
-0.95166 2.5944 10.19 118 120 114
-0.939583 2.59185 10.18 118 120 114
-0.92844 2.59185 10.18 119 121 115
-0.916396 2.58931 10.17 119 121 115
-0.904374 2.58676 10.16 119 121 115
-0.893253 2.58676 10.16 118 120 114
-0.881263 2.58422 10.15 118 120 114
-0.870153 2.58422 10.15 117 119 113
-0.85735 2.57912 10.13 115 117 111
-0.844591 2.57403 10.11 118 119 116
-0.8327 2.57149 10.1 132 133 130
-0.820018 2.56639 10.08 132 132 132
-0.808182 2.56385 10.07 160 160 160
-0.795576 2.55876 10.05 176 180 180
-0.783014 2.55366 10.03 170 174 174
-0.770495 2.54857 10.01 164 170 170
-0.75878 2.54603 10 161 167 167
-0.746338 2.54093 9.98 161 167 167
-0.734677 2.53839 9.97 156 162 162
-0.723038 2.53584 9.96 155 161 161
-0.710706 2.53075 9.94 159 165 165
-0.699121 2.5282 9.93 159 165 164
-0.686866 2.52311 9.91 161 167 166
-0.675336 2.52057 9.9 161 167 166
-0.663157 2.51547 9.88 160 166 165
-0.651022 2.51038 9.86 160 166 165
-0.63958 2.50784 9.85 161 167 166
-0.627521 2.50274 9.83 160 166 165
-0.615507 2.49765 9.81 159 165 164
-0.603535 2.49256 9.79 157 163 162
-0.592214 2.49001 9.78 159 165 164
-0.580319 2.48492 9.76 160 166 165
-0.569053 2.48238 9.75 161 167 166
-0.557807 2.47983 9.74 162 169 165
-0.547146 2.47983 9.74 162 169 165
-0.536485 2.47983 9.74 162 169 165
-0.526363 2.48238 9.75 162 169 165
-0.515691 2.48238 9.75 162 169 165
-0.505018 2.48238 9.75 161 168 164
-0.494346 2.48238 9.75 162 169 165
-0.483674 2.48238 9.75 163 170 166
-0.473001 2.48238 9.75 163 170 166
-0.462329 2.48238 9.75 163 170 166
-0.451657 2.48238 9.75 162 169 165
-0.440984 2.48238 9.75 159 166 162
-0.429871 2.47983 9.74 160 167 163
-0.41964 2.48238 9.75 162 169 165
-0.408548 2.47983 9.74 163 170 166
-0.397478 2.47728 9.73 163 170 166
-0.386827 2.47728 9.73 162 169 165
-0.37579 2.47474 9.72 162 169 165
-0.365151 2.47474 9.72 159 169 164
-0.354876 2.47728 9.73 159 169 164
-0.344226 2.47728 9.73 157 167 162
-0.333918 2.47983 9.74 157 167 162
-0.323588 2.48238 9.75 157 166 164
-0.313237 2.48492 9.76 159 168 166
-0.302864 2.48747 9.77 161 170 168
-0.292768 2.49256 9.79 162 171 169
-0.282051 2.49256 9.79 161 170 168
-0.271612 2.49511 9.8 161 170 168
-0.261152 2.49765 9.81 153 162 160
-0.250414 2.49765 9.81 158 167 165
-0.239676 2.49765 9.81 160 170 165
-0.228937 2.49765 9.81 160 170 165
-0.218422 2.5002 9.82 163 170 166
-0.207673 2.5002 9.82 164 171 167
-0.196924 2.5002 9.82 163 170 166
-0.186365 2.50274 9.83 162 169 165
-0.175605 2.50274 9.83 163 170 166
-0.165012 2.50529 9.84 163 170 166
-0.154242 2.50529 9.84 162 169 165
-0.143471 2.50529 9.84 160 167 163
-0.132835 2.50784 9.85 161 171 166
-0.121929 2.50529 9.84 162 172 167
-0.110932 2.5002 9.82 160 169 167
-0.100081 2.49765 9.81 160 169 167
-0.089252 2.49511 9.8 160 169 167
-0.0783647 2.49001 9.78 160 169 167
-0.0675903 2.48747 9.77 159 168 166
-0.0568378 2.48492 9.76 158 167 165
-0.0461072 2.48238 9.75 159 168 166
-0.0354349 2.48238 9.75 160 169 167
-0.0247625 2.48238 9.75 162 171 169
-0.0140902 2.48238 9.75 164 173 171
-0.00341784 2.48238 9.75 161 170 168
0.00726196 2.48492 9.76 160 169 167
0.0179453 2.48492 9.76 160 169 167
0.0286286 2.48492 9.76 160 169 167
0.0392716 2.48238 9.75 160 169 167
0.0499952 2.48492 9.76 160 169 167
0.0606163 2.48238 9.75 161 170 168
0.0712886 2.48238 9.75 161 170 168
0.081961 2.48238 9.75 160 169 167
0.0926333 2.48238 9.75 160 169 167
0.103306 2.48238 9.75 161 167 166
0.113978 2.48238 9.75 161 167 166
0.12465 2.48238 9.75 161 167 166
0.135323 2.48238 9.75 162 168 167
0.145995 2.48238 9.75 162 168 167
0.156667 2.48238 9.75 161 167 166
0.16734 2.48238 9.75 161 167 166
0.178012 2.48238 9.75 162 168 167
0.188491 2.47983 9.74 163 169 168
0.199152 2.47983 9.74 163 169 168
0.209598 2.47728 9.73 162 168 167
0.220249 2.47728 9.73 161 167 166
0.230899 2.47728 9.73 163 169 168
0.241302 2.47474 9.72 162 168 167
0.251941 2.47474 9.72 163 169 168
0.26231 2.47219 9.71 163 169 168
0.272658 2.46965 9.7 163 169 168
0.282983 2.4671 9.69 162 168 167
0.29359 2.4671 9.69 162 168 167
0.304197 2.4671 9.69 161 167 166
0.314804 2.4671 9.69 161 167 166
0.325074 2.46455 9.68 161 167 166
0.33567 2.46455 9.68 157 166 164
0.346266 2.46455 9.68 154 163 161
0.356862 2.46455 9.68 153 162 160
0.367457 2.46455 9.68 154 163 161
0.378053 2.46455 9.68 157 166 164
0.388649 2.46455 9.68 153 162 160
0.399244 2.46455 9.68 150 159 157
0.410264 2.4671 9.69 147 156 154
0.42087 2.4671 9.69 145 156 154
0.431477 2.4671 9.69 143 154 152
0.442084 2.4671 9.69 141 152 150
0.453157 2.46965 9.7 143 154 152
0.463775 2.46965 9.7 140 151 150
0.474393 2.46965 9.7 137 148 147
0.48551 2.47219 9.71 140 151 150
0.49665 2.47474 9.72 138 149 148
0.507811 2.47728 9.73 137 148 147
0.519527 2.48238 9.75 138 149 148
0.531287 2.48747 9.77 135 146 145
0.542536 2.49001 9.78 127 138 137
0.554939 2.49765 9.81 131 142 141
0.565677 2.49765 9.81 127 138 137
0.577002 2.5002 9.82 121 132 131
0.587751 2.5002 9.82 123 134 133
0.5985 2.5002 9.82 127 138 136
0.609249 2.5002 9.82 129 140 138
0.619367 2.49765 9.81 131 142 140
0.62882 2.49256 9.79 119 130 128
0.638883 2.49001 9.78 116 127 125
0.64826 2.48492 9.76 129 140 138
0.658268 2.48238 9.75 122 133 131
0.668254 2.47983 9.74 122 133 131
0.678219 2.47728 9.73 120 131 129
0.688161 2.47474 9.72 117 128 126
0.698801 2.47474 9.72 114 125 123
0.70944 2.47474 9.72 121 132 130
0.72008 2.47474 9.72 122 133 131
0.730719 2.47474 9.72 123 134 132
0.741359 2.47474 9.72 121 132 130
0.751998 2.47474 9.72 121 132 130
0.763422 2.47728 9.73 119 130 128
0.774073 2.47728 9.73 122 133 131
0.78553 2.47983 9.74 123 134 132
0.796191 2.47983 9.74 122 133 131
0.807681 2.48238 9.75 121 132 130
0.818353 2.48238 9.75 120 131 129
0.829026 2.48238 9.75 117 128 127
0.839698 2.48238 9.75 121 132 131
0.85037 2.48238 9.75 126 136 138
0.861043 2.48238 9.75 121 131 133
0.871715 2.48238 9.75 115 125 127
0.881482 2.47983 9.74 120 130 132
0.892144 2.47983 9.74 119 131 133
0.902805 2.47983 9.74 110 122 124
0.913467 2.47983 9.74 119 131 133
0.924128 2.47983 9.74 120 132 134
0.934789 2.47983 9.74 115 127 129
0.946422 2.48238 9.75 118 130 132
0.957094 2.48238 9.75 119 131 133
0.967766 2.48238 9.75 118 130 132
0.979442 2.48492 9.76 115 127 129
0.990125 2.48492 9.76 115 127 129
1.00081 2.48492 9.76 117 129 131
1.01149 2.48492 9.76 117 129 131
1.02218 2.48492 9.76 118 130 132
1.03286 2.48492 9.76 119 131 133
1.04247 2.48238 9.75 121 132 136
1.05315 2.48238 9.75 122 133 137
1.06382 2.48238 9.75 124 133 137
1.07449 2.48238 9.75 124 133 137
1.08516 2.48238 9.75 124 133 137
1.09583 2.48238 9.75 124 133 137
1.10651 2.48238 9.75 126 135 139
1.11603 2.47983 9.74 127 136 140
1.12669 2.47983 9.74 126 135 139
1.13736 2.47983 9.74 126 135 139
1.14802 2.47983 9.74 126 135 139
1.15868 2.47983 9.74 126 135 139
1.16934 2.47983 9.74 128 137 141
1.18 2.47983 9.74 129 138 142
1.18944 2.47728 9.73 126 137 141
1.20009 2.47728 9.73 126 137 141
1.21199 2.47983 9.74 126 137 141
1.22265 2.47983 9.74 124 135 139
1.23458 2.48238 9.75 120 134 137
1.24525 2.48238 9.75 122 136 139
1.25592 2.48238 9.75 122 136 139
1.26789 2.48492 9.76 122 136 139
1.27857 2.48492 9.76 123 137 140
1.29058 2.48747 9.77 125 139 142
1.30261 2.49001 9.78 126 141 142
1.31331 2.49001 9.78 127 142 143
1.32537 2.49256 9.79 127 142 143
1.33472 2.49001 9.78 126 141 142
1.34543 2.49001 9.78 131 143 145
1.35613 2.49001 9.78 135 147 149
1.36684 2.49001 9.78 129 139 141
1.37754 2.49001 9.78 134 144 146
1.38825 2.49001 9.78 138 148 150
1.39752 2.48747 9.77 136 146 148
1.40822 2.48747 9.77 133 143 145
1.41746 2.48492 9.76 146 156 158
1.42814 2.48492 9.76 140 151 150
1.43735 2.48238 9.75 140 151 150
1.44802 2.48238 9.75 140 151 150
1.4572 2.47983 9.74 152 163 162
1.46786 2.47983 9.74 152 163 162
1.477 2.47728 9.73 144 155 154
1.48612 2.47474 9.72 148 159 158
1.49522 2.47219 9.71 149 160 159
1.5043 2.46965 9.7 149 160 158
1.51492 2.46965 9.7 149 160 158
1.52554 2.46965 9.7 148 159 157
1.53457 2.4671 9.69 148 159 157
1.54518 2.4671 9.69 152 161 159
1.55418 2.46455 9.68 151 160 158
1.56477 2.46455 9.68 149 160 158
1.57537 2.46455 9.68 149 160 158
1.58597 2.46455 9.68 149 160 158
1.59656 2.46455 9.68 149 160 158
1.60716 2.46455 9.68 150 159 157
1.61775 2.46455 9.68 150 159 157
1.62835 2.46455 9.68 147 156 154
1.63894 2.46455 9.68 147 156 154
1.65124 2.4671 9.69 150 159 157
1.66185 2.4671 9.69 150 159 157
1.67246 2.4671 9.69 148 157 156
1.68306 2.4671 9.69 147 156 155
1.69367 2.4671 9.69 148 157 156
1.70428 2.4671 9.69 151 160 159
1.71312 2.46455 9.68 150 159 158
1.72371 2.46455 9.68 148 157 156
1.73431 2.46455 9.68 150 159 158
1.7449 2.46455 9.68 151 160 159
1.7555 2.46455 9.68 149 160 158
1.76427 2.46201 9.67 148 159 157
1.77485 2.46201 9.67 146 157 155
1.78359 2.45946 9.66 150 161 159
1.79602 2.46201 9.67 146 159 157
1.80661 2.46201 9.67 143 156 154
1.81907 2.46455 9.68 146 159 157
1.82967 2.46455 9.68 146 159 157
1.84026 2.46455 9.68 141 154 152
1.85086 2.46455 9.68 141 154 152
1.86338 2.4671 9.69 145 156 154
1.87592 2.46965 9.7 146 157 155
1.88848 2.47219 9.71 148 159 157
1.90107 2.47474 9.72 149 160 158
1.91367 2.47728 9.73 148 159 157
1.9263 2.47983 9.74 146 157 155
1.93895 2.48238 9.75 145 156 155
1.94962 2.48238 9.75 146 157 156
1.9603 2.48238 9.75 148 159 158
1.97097 2.48238 9.75 149 160 159
1.97961 2.47983 9.74 150 161 160
1.99027 2.47983 9.74 149 160 159
2.00093 2.47983 9.74 149 160 159
2.00746 2.47474 9.72 150 161 160
2.0181 2.47474 9.72 150 161 160
2.02874 2.47474 9.72 150 161 160
2.03728 2.47219 9.71 151 160 159
2.04791 2.47219 9.71 146 155 154
2.05854 2.47219 9.71 145 154 153
2.06917 2.47219 9.71 148 157 156
2.07765 2.46965 9.7 150 159 158
2.08827 2.46965 9.7 150 159 158
2.09889 2.46965 9.7 150 159 157
2.10951 2.46965 9.7 150 159 157
2.12012 2.46965 9.7 150 159 157
2.13074 2.46965 9.7 150 159 157
2.14136 2.46965 9.7 150 159 157
2.15198 2.46965 9.7 148 157 155
2.16259 2.46965 9.7 146 157 155
2.17545 2.47219 9.71 146 157 155
2.18608 2.47219 9.71 146 157 155
2.19671 2.47219 9.71 146 157 155
2.20734 2.47219 9.71 146 157 156
2.21797 2.47219 9.71 145 156 155
2.2286 2.47219 9.71 140 151 150
2.23692 2.46965 9.7 141 152 151
2.24754 2.46965 9.7 145 156 155
2.25815 2.46965 9.7 146 157 156
2.26877 2.46965 9.7 146 157 156
2.27939 2.46965 9.7 145 156 155
2.29001 2.46965 9.7 145 156 155
2.29825 2.4671 9.69 146 157 156
2.30886 2.4671 9.69 148 159 158
2.31707 2.46455 9.68 144 155 154
2.32767 2.46455 9.68 144 155 154
2.33826 2.46455 9.68 146 157 156
2.34886 2.46455 9.68 148 159 158
2.35945 2.46455 9.68 146 157 156
2.3676 2.46201 9.67 145 156 155
2.37573 2.45946 9.66 143 154 153
2.3863 2.45946 9.66 143 154 153
2.39688 2.45946 9.66 143 154 153
2.40745 2.45946 9.66 145 156 155
2.42053 2.46201 9.67 145 156 155
2.43362 2.46455 9.68 142 153 152
2.44422 2.46455 9.68 142 153 152
2.45735 2.4671 9.69 143 154 153
2.46541 2.46455 9.68 143 154 153
2.47857 2.4671 9.69 143 154 153
2.48917 2.4671 9.69 142 153 152
2.49978 2.4671 9.69 140 151 150
2.51039 2.4671 9.69 141 152 151
2.52099 2.4671 9.69 138 149 148
2.5316 2.4671 9.69 138 149 148
2.54221 2.4671 9.69 138 151 149
2.55545 2.46965 9.7 131 144 142
2.56606 2.46965 9.7 105 118 117
2.57668 2.46965 9.7 110 123 122
2.58997 2.47219 9.71 106 118 120
2.60327 2.47474 9.72 101 113 115
2.6166 2.47728 9.73 100 112 114
2.63265 2.48238 9.75 99 111 113
2.64604 2.48492 9.76 103 115 117
2.66216 2.49001 9.78 103 115 117
2.67287 2.49001 9.78 103 113 115
2.68632 2.49256 9.79 102 112 114
2.69979 2.49511 9.8 101 109 111
2.71328 2.49765 9.81 100 108 110
2.72402 2.49765 9.81 101 109 111
2.73755 2.5002 9.82 101 109 111
2.7483 2.5002 9.82 102 111 110
2.76185 2.50274 9.83 102 111 110
2.77543 2.50529 9.84 100 111 109
2.78904 2.50784 9.85 96 107 105
2.8055 2.51293 9.87 95 106 104
2.81916 2.51547 9.88 96 107 105
2.8357 2.52057 9.9 96 107 105
2.84942 2.52311 9.91 96 107 105
2.86604 2.5282 9.93 98 110 112
-1.10129 2.59022 10.13 104 103 95
-1.09128 2.59278 10.14 128 130 119
-1.08125 2.59533 10.15 123 125 114
-1.07014 2.59533 10.15 122 126 115
-1.06007 2.59789 10.16 129 133 122
-1.04895 2.59789 10.16 126 129 121
-1.03885 2.60045 10.17 112 115 107
-1.02873 2.60301 10.18 115 118 110
-1.01858 2.60556 10.19 117 120 112
-1.00743 2.60556 10.19 117 120 112
-0.997254 2.60812 10.2 117 120 112
-0.985122 2.60556 10.19 116 118 112
-0.973968 2.60556 10.19 116 118 112
-0.961869 2.60301 10.18 117 119 113
-0.950726 2.60301 10.18 118 120 114
-0.939583 2.60301 10.18 119 121 115
-0.92844 2.60301 10.18 119 121 115
-0.916396 2.60045 10.17 122 124 118
-0.904374 2.59789 10.16 119 121 115
-0.893253 2.59789 10.16 118 120 114
-0.881263 2.59533 10.15 117 119 113
-0.870153 2.59533 10.15 117 119 113
-0.85735 2.59022 10.13 118 120 114
-0.845426 2.58766 10.12 117 119 113
-0.8327 2.58255 10.1 118 120 114
-0.820831 2.57999 10.09 121 121 121
-0.808182 2.57488 10.07 128 128 128
-0.794784 2.56721 10.04 142 146 146
-0.783014 2.56465 10.03 155 159 159
-0.771265 2.56209 10.02 173 179 179
-0.75878 2.55698 10 174 180 180
-0.746338 2.55187 9.98 157 163 163
-0.734677 2.54931 9.97 155 161 161
-0.723038 2.54675 9.96 159 165 165
-0.710706 2.54164 9.94 156 162 162
-0.699121 2.53908 9.93 156 162 162
-0.686866 2.53397 9.91 159 165 165
-0.675336 2.53141 9.9 160 166 165
-0.663157 2.5263 9.88 159 165 164
-0.651022 2.52118 9.86 160 166 165
-0.63893 2.51607 9.84 161 167 166
-0.626883 2.51095 9.82 160 166 165
-0.614252 2.50328 9.79 159 165 164
-0.602919 2.50073 9.78 159 165 164
-0.591003 2.49561 9.76 159 165 164
-0.579725 2.49306 9.75 160 166 165
-0.567885 2.48794 9.73 161 167 166
-0.556662 2.48538 9.72 161 167 166
-0.546023 2.48538 9.72 162 168 167
-0.535383 2.48538 9.72 162 169 165
-0.525283 2.48794 9.73 162 169 165
-0.514104 2.48538 9.72 161 168 164
-0.503465 2.48538 9.72 160 167 163
-0.492825 2.48538 9.72 160 167 163
-0.482185 2.48538 9.72 162 169 165
-0.471546 2.48538 9.72 162 169 165
-0.460906 2.48538 9.72 162 169 165
-0.450267 2.48538 9.72 161 168 164
-0.439627 2.48538 9.72 161 168 164
-0.428547 2.48283 9.71 161 168 164
-0.417488 2.48027 9.7 161 168 164
-0.40687 2.48027 9.7 160 167 163
-0.396252 2.48027 9.7 162 169 165
-0.385237 2.47771 9.69 163 170 166
-0.37463 2.47771 9.69 162 169 165
-0.364024 2.47771 9.69 159 169 164
-0.353417 2.47771 9.69 159 169 164
-0.343164 2.48027 9.7 159 169 164
-0.332889 2.48283 9.71 159 169 164
-0.322593 2.48538 9.72 159 168 166
-0.312274 2.48794 9.73 160 169 167
-0.302244 2.49306 9.75 160 169 167
-0.29187 2.49561 9.76 160 169 167
-0.281475 2.49817 9.77 160 169 167
-0.271058 2.50073 9.78 162 171 169
-0.260619 2.50328 9.79 157 166 164
-0.250158 2.50584 9.8 154 163 161
-0.239431 2.50584 9.8 160 169 167
-0.228471 2.50328 9.79 159 168 166
-0.217977 2.50584 9.8 162 169 165
-0.20725 2.50584 9.8 163 170 166
-0.196723 2.5084 9.81 163 170 166
-0.185796 2.50584 9.8 162 169 165
-0.175247 2.5084 9.81 162 169 165
-0.164509 2.5084 9.81 163 170 166
-0.153771 2.5084 9.81 175 182 178
-0.143033 2.5084 9.81 167 174 170
-0.13243 2.51095 9.82 162 169 165
-0.121557 2.5084 9.81 166 173 169
-0.110593 2.50328 9.79 160 170 165
-0.0997751 2.50073 9.78 160 170 165
-0.0888877 2.49561 9.76 161 171 166
-0.0781243 2.49306 9.75 162 172 167
-0.0673828 2.4905 9.74 159 169 164
-0.0566631 2.48794 9.73 159 169 164
-0.0459654 2.48538 9.72 159 169 164
-0.0353259 2.48538 9.72 160 170 165
-0.0246864 2.48538 9.72 161 171 166
-0.0140468 2.48538 9.72 164 174 169
-0.00341083 2.48794 9.73 160 170 165
0.00723964 2.48794 9.73 158 168 163
0.0178901 2.48794 9.73 158 167 165
0.0285699 2.4905 9.74 158 167 165
0.0392313 2.4905 9.74 158 167 165
0.0498927 2.4905 9.74 159 168 166
0.0604919 2.48794 9.73 161 170 168
0.0711424 2.48794 9.73 162 171 169
0.0817929 2.48794 9.73 161 170 168
0.0924433 2.48794 9.73 159 168 166
0.103094 2.48794 9.73 159 168 166
0.113744 2.48794 9.73 158 167 165
0.124395 2.48794 9.73 157 166 164
0.134906 2.48538 9.72 159 168 166
0.145546 2.48538 9.72 162 168 167
0.156185 2.48538 9.72 162 168 167
0.166997 2.48794 9.73 162 168 167
0.177464 2.48538 9.72 162 168 167
0.188104 2.48538 9.72 162 168 167
0.198539 2.48283 9.71 163 169 168
0.208952 2.48027 9.7 164 170 169
0.21957 2.48027 9.7 164 170 169
0.230187 2.48027 9.7 163 170 166
0.240557 2.47771 9.69 163 170 166
0.251163 2.47771 9.69 163 170 166
0.2615 2.47516 9.68 163 170 166
0.272096 2.47516 9.68 163 170 166
0.282399 2.4726 9.67 162 169 165
0.292681 2.47004 9.66 162 169 165
0.303255 2.47004 9.66 161 168 164
0.313829 2.47004 9.66 161 168 164
0.324403 2.47004 9.66 161 168 164
0.33463 2.46749 9.65 158 168 163
0.345193 2.46749 9.65 155 165 160
0.356124 2.47004 9.66 154 164 159
0.366698 2.47004 9.66 157 167 162
0.377272 2.47004 9.66 157 167 162
0.387846 2.47004 9.66 155 165 160
0.39842 2.47004 9.66 153 162 160
0.408993 2.47004 9.66 154 163 161
0.420002 2.4726 9.67 148 157 155
0.431032 2.47516 9.68 147 156 154
0.441627 2.47516 9.68 146 155 154
0.452223 2.47516 9.68 144 153 152
0.463297 2.47771 9.69 143 152 151
0.473904 2.47771 9.69 143 152 151
0.48451 2.47771 9.69 143 154 153
0.495628 2.48027 9.7 140 151 150
0.506768 2.48283 9.71 138 149 148
0.518462 2.48794 9.73 141 152 151
0.5302 2.49306 9.75 142 153 152
0.541427 2.49561 9.76 136 147 146
0.553242 2.50073 9.78 135 146 145
0.563947 2.50073 9.78 133 144 143
0.57524 2.50328 9.79 137 148 147
0.585956 2.50328 9.79 133 144 143
0.596672 2.50328 9.79 131 142 141
0.607388 2.50328 9.79 130 141 140
0.617473 2.50073 9.78 129 140 138
0.626251 2.49306 9.75 126 137 135
0.636923 2.49306 9.75 130 141 139
0.646267 2.48794 9.73 131 142 140
0.656243 2.48538 9.72 128 139 137
0.666882 2.48538 9.72 127 138 136
0.676128 2.48027 9.7 126 137 135
0.686745 2.48027 9.7 124 135 133
0.696644 2.47771 9.69 127 138 136
0.707251 2.47771 9.69 128 139 137
0.717857 2.47771 9.69 127 140 138
0.729216 2.48027 9.7 127 140 138
0.739833 2.48027 9.7 126 139 137
0.750451 2.48027 9.7 125 138 136
0.761069 2.48027 9.7 126 139 137
0.772482 2.48283 9.71 128 141 139
0.783917 2.48538 9.72 131 145 140
0.794556 2.48538 9.72 122 136 131
0.805196 2.48538 9.72 122 136 131
0.816675 2.48794 9.73 125 139 134
0.827325 2.48794 9.73 125 138 137
0.837976 2.48794 9.73 120 133 132
0.848626 2.48794 9.73 115 128 127
0.859277 2.48794 9.73 120 133 132
0.869927 2.48794 9.73 121 134 133
0.880577 2.48794 9.73 125 138 137
0.891228 2.48794 9.73 124 137 136
0.901878 2.48794 9.73 122 135 134
0.911591 2.48538 9.72 125 137 139
0.92223 2.48538 9.72 122 134 136
0.93287 2.48538 9.72 121 133 135
0.94448 2.48794 9.73 122 134 136
0.955131 2.48794 9.73 122 134 136
0.965781 2.48794 9.73 121 133 135
0.976432 2.48794 9.73 126 138 140
0.987082 2.48794 9.73 120 132 134
0.997732 2.48794 9.73 118 130 132
1.00838 2.48794 9.73 127 139 141
1.01903 2.48794 9.73 119 131 133
1.02968 2.48794 9.73 119 131 133
1.04033 2.48794 9.73 126 136 138
1.0499 2.48538 9.72 127 137 139
1.06054 2.48538 9.72 126 136 138
1.07118 2.48538 9.72 128 138 140
1.08182 2.48538 9.72 128 138 140
1.09134 2.48283 9.71 127 137 139
1.10197 2.48283 9.71 127 137 139
1.11145 2.48027 9.7 129 139 141
1.12207 2.48027 9.7 131 139 141
1.13385 2.48283 9.71 130 138 140
1.14448 2.48283 9.71 127 137 139
1.15511 2.48283 9.71 128 138 140
1.16574 2.48283 9.71 128 138 140
1.17637 2.48283 9.71 129 139 141
1.187 2.48283 9.71 127 139 141
1.19762 2.48283 9.71 127 139 141
1.2095 2.48538 9.72 126 138 140
1.22014 2.48538 9.72 125 137 139
1.23078 2.48538 9.72 123 138 139
1.24142 2.48538 9.72 123 138 139
1.25334 2.48794 9.73 124 139 140
1.26399 2.48794 9.73 124 139 140
1.27595 2.4905 9.74 124 139 140
1.28794 2.49306 9.75 126 141 142
1.29861 2.49306 9.75 126 141 142
1.31062 2.49561 9.76 127 142 143
1.32131 2.49561 9.76 127 142 143
1.33199 2.49561 9.76 126 141 142
1.34267 2.49561 9.76 131 143 145
1.35197 2.49306 9.75 135 147 149
1.36264 2.49306 9.75 136 146 148
1.37332 2.49306 9.75 138 148 150
1.38399 2.49306 9.75 141 152 151
1.39323 2.4905 9.74 138 149 148
1.40389 2.4905 9.74 137 148 147
1.41455 2.4905 9.74 145 156 155
1.42375 2.48794 9.73 142 153 151
1.4344 2.48794 9.73 148 159 157
1.44357 2.48538 9.72 145 156 154
1.45421 2.48538 9.72 146 157 155
1.46485 2.48538 9.72 143 154 152
1.47397 2.48283 9.71 145 156 154
1.48307 2.48027 9.7 148 159 157
1.49368 2.48027 9.7 149 160 158
1.50275 2.47771 9.69 149 160 158
1.51336 2.47771 9.69 150 161 159
1.52239 2.47516 9.68 150 161 159
1.53299 2.47516 9.68 149 160 158
1.54039 2.47004 9.66 150 161 159
1.55097 2.47004 9.66 146 157 155
1.56154 2.47004 9.66 148 160 155
1.57049 2.46749 9.65 150 162 157
1.58105 2.46749 9.65 149 161 156
1.59161 2.46749 9.65 149 161 156
1.60218 2.46749 9.65 150 160 155
1.61274 2.46749 9.65 150 160 155
1.6233 2.46749 9.65 148 157 155
1.63387 2.46749 9.65 150 159 157
1.64613 2.47004 9.66 151 160 158
1.65671 2.47004 9.66 152 161 159
1.66728 2.47004 9.66 152 161 160
1.67785 2.47004 9.66 147 156 155
1.68668 2.46749 9.65 148 157 156
1.699 2.47004 9.66 150 159 158
1.70781 2.46749 9.65 148 157 156
1.71837 2.46749 9.65 159 168 167
1.72893 2.46749 9.65 165 174 173
1.73769 2.46493 9.64 154 163 162
1.74824 2.46493 9.64 146 157 156
1.75697 2.46237 9.63 146 157 156
1.76751 2.46237 9.63 147 160 158
1.77805 2.46237 9.63 157 170 168
1.79045 2.46493 9.64 147 160 158
1.801 2.46493 9.64 141 154 152
1.81156 2.46493 9.64 143 156 154
1.82211 2.46493 9.64 146 159 157
1.83456 2.46749 9.65 146 159 157
1.84512 2.46749 9.65 144 157 155
1.85569 2.46749 9.65 146 159 157
1.86818 2.47004 9.66 147 160 158
1.87876 2.47004 9.66 149 160 158
1.89129 2.4726 9.67 149 160 158
1.90384 2.47516 9.68 149 160 158
1.91641 2.47771 9.69 146 157 155
1.92702 2.47771 9.69 146 157 156
1.93762 2.47771 9.69 148 159 158
1.95024 2.48027 9.7 150 161 160
1.96086 2.48027 9.7 151 162 161
1.96944 2.47771 9.69 150 161 160
1.9821 2.48027 9.7 148 159 158
1.99066 2.47771 9.69 148 159 158
2.00127 2.47771 9.69 149 160 159
2.01187 2.47771 9.69 150 161 160
2.02248 2.47771 9.69 149 160 159
2.03309 2.47771 9.69 152 161 160
2.04369 2.47771 9.69 152 161 160
2.0543 2.47771 9.69 151 160 159
2.06491 2.47771 9.69 150 159 158
2.07551 2.47771 9.69 150 159 158
2.08397 2.47516 9.68 148 157 156
2.09456 2.47516 9.68 148 157 155
2.10516 2.47516 9.68 148 157 155
2.11575 2.47516 9.68 148 157 155
2.12855 2.47771 9.69 147 156 154
2.13915 2.47771 9.69 145 156 154
2.14976 2.47771 9.69 145 156 154
2.16037 2.47771 9.69 148 159 157
2.17097 2.47771 9.69 148 159 157
2.18158 2.47771 9.69 148 159 157
2.19219 2.47771 9.69 148 159 157
2.20279 2.47771 9.69 148 159 157
2.2134 2.47771 9.69 146 157 155
2.22401 2.47771 9.69 140 151 149
2.23461 2.47771 9.69 143 154 152
2.24522 2.47771 9.69 145 156 154
2.25583 2.47771 9.69 148 159 157
2.26409 2.47516 9.68 148 159 158
2.27469 2.47516 9.68 145 156 155
2.28528 2.47516 9.68 145 156 155
2.29588 2.47516 9.68 143 154 153
2.30409 2.4726 9.67 141 152 151
2.31228 2.47004 9.66 144 155 154
2.32286 2.47004 9.66 145 156 155
2.33343 2.47004 9.66 143 154 153
2.34401 2.47004 9.66 141 154 153
2.35214 2.46749 9.65 144 157 156
2.36271 2.46749 9.65 142 155 154
2.37327 2.46749 9.65 141 154 153
2.38136 2.46493 9.64 140 153 152
2.39191 2.46493 9.64 139 152 151
2.40496 2.46749 9.65 138 151 150
2.41802 2.47004 9.66 139 152 151
2.4286 2.47004 9.66 140 153 152
2.43917 2.47004 9.66 141 154 153
2.45482 2.47516 9.68 141 154 153
2.46541 2.47516 9.68 140 153 152
2.47601 2.47516 9.68 140 153 152
2.48917 2.47771 9.69 141 154 153
2.49978 2.47771 9.69 146 159 158
2.51039 2.47771 9.69 135 148 147
2.52099 2.47771 9.69 133 146 145
2.5316 2.47771 9.69 134 147 146
2.54221 2.47771 9.69 135 148 147
2.55281 2.47771 9.69 119 132 131
2.56342 2.47771 9.69 92 104 106
2.57668 2.48027 9.7 97 109 111
2.5873 2.48027 9.7 99 111 113
2.60327 2.48538 9.72 100 112 114
2.6166 2.48794 9.73 100 112 114
2.62995 2.4905 9.74 100 112 114
2.64333 2.49306 9.75 100 112 114
2.65944 2.49817 9.77 100 112 114
2.67287 2.50073 9.78 100 112 114
2.68632 2.50328 9.79 99 111 113
2.69979 2.50584 9.8 98 108 110
2.71328 2.5084 9.81 98 108 110
2.72402 2.5084 9.81 98 108 110
2.73755 2.51095 9.82 98 108 110
2.7483 2.51095 9.82 99 109 111
2.76185 2.51351 9.83 100 110 112
2.77543 2.51607 9.84 99 110 109
2.78621 2.51607 9.84 94 105 104
2.79982 2.51863 9.85 94 105 103
2.81631 2.52374 9.87 96 107 105
2.82997 2.5263 9.88 93 106 105
2.84654 2.53141 9.9 97 110 109
2.86026 2.53397 9.91 104 115 119
-1.08805 2.59618 10.11 80 81 68
-1.07805 2.59875 10.12 99 100 87
-1.06803 2.60132 10.13 120 123 110
-1.05798 2.60388 10.14 111 114 101
-1.04792 2.60645 10.15 107 111 100
-1.03681 2.60645 10.15 110 114 103
