ply
format ascii 1.0
comment Created by Open3D
element vertex 1468
property double x
property double y
property double z
property uchar red
property uchar green
property uchar blue
end_header
-0 0 0 175 167 165
-0 0 0 176 168 166
-0 0 0 179 173 166
-0 0 0 177 171 164
-0 0 0 182 176 169
-0 0 0 183 177 170
-0 0 0 184 179 169
-0.690006 1.84035 10.28 186 181 171
-0.678753 1.84035 10.28 190 185 175
-0.666851 1.83856 10.27 189 184 174
-0.654971 1.83677 10.26 186 180 173
-0.643113 1.83498 10.25 180 174 167
-0.631894 1.83498 10.25 155 149 142
-0.620068 1.83319 10.24 168 162 155
-0.607671 1.82961 10.22 160 153 148
-0.596484 1.82961 10.22 166 159 154
-0.584724 1.82782 10.21 167 160 155
-0.572987 1.82603 10.2 167 160 155
-0.561822 1.82603 10.2 167 160 155
-0.550657 1.82603 10.2 166 159 154
-0.539492 1.82603 10.2 166 159 154
-0.528327 1.82603 10.2 166 159 154
-0.518176 1.82961 10.22 161 154 149
-0.507981 1.83319 10.24 162 155 150
-0.497743 1.83677 10.26 161 155 153
-0.487935 1.84214 10.29 167 161 159
-0.478524 1.8493 10.33 165 162 159
-0.468574 1.85467 10.36 163 160 157
-0.458999 1.86183 10.4 162 159 156
-0.449337 1.86899 10.44 165 162 159
-0.438748 1.87257 10.46 162 159 156
-0.428116 1.87616 10.48 158 155 152
-0.417042 1.87795 10.49 157 154 151
-0.405946 1.87974 10.5 162 159 156
-0.394829 1.88153 10.51 169 166 163
-0.383324 1.88153 10.51 163 160 157
-0.371466 1.87974 10.5 147 144 141
-0.360316 1.88153 10.51 156 153 150
-0.348812 1.88153 10.51 158 156 150
-0.337307 1.88153 10.51 159 157 151
-0.326113 1.88332 10.52 159 157 151
-0.315196 1.8869 10.54 164 162 156
-0.304523 1.89227 10.57 163 161 155
-0.293508 1.89585 10.59 169 167 161
-0.282448 1.89943 10.61 173 171 165
-0.2716 1.9048 10.64 153 151 145
-0.260931 1.91196 10.68 154 152 146
-0.249941 1.91733 10.71 156 154 148
-0.238663 1.92091 10.73 156 154 148
-0.22734 1.92449 10.75 159 157 151
-0.215975 1.92807 10.77 157 155 149
-0.204565 1.93165 10.79 155 153 147
-0.192933 1.93344 10.8 156 150 148
-0.181279 1.93523 10.81 163 157 155
-0.169446 1.93523 10.81 159 153 151
-0.157614 1.93523 10.81 163 157 155
-0.145916 1.93702 10.82 173 167 165
-0.13432 1.9406 10.84 165 159 157
-0.122455 1.9406 10.84 156 150 148
-0.110385 1.93702 10.82 158 152 150
-0.0984505 1.93523 10.81 159 153 151
-0.0865377 1.93344 10.8 159 153 151
-0.0746468 1.93165 10.79 156 153 150
-0.0627779 1.92986 10.78 156 153 150
-0.0509308 1.92807 10.77 156 153 150
-0.0391056 1.92628 10.76 155 152 149
-0.0272769 1.9227 10.74 155 152 149
-0.015492 1.91912 10.72 158 155 152
-0.00375086 1.91554 10.7 155 152 149
0.00795393 1.91375 10.69 156 153 150
0.0196 1.90838 10.66 155 152 149
0.0312098 1.9048 10.64 153 150 147
0.0428161 1.90301 10.63 159 155 148
0.0542468 1.89585 10.59 166 162 155
0.0657143 1.89227 10.57 163 159 152
0.0769917 1.88511 10.53 164 160 153
0.0882657 1.87974 10.5 152 142 133
0.099379 1.87257 10.46 152 142 133
0.110511 1.8672 10.43 167 153 143
0.12146 1.86004 10.39 177 163 153
0.132449 1.85467 10.36 197 186 175
0.143512 1.85109 10.34 187 176 165
0.15453 1.84751 10.32 167 158 147
0.165666 1.84572 10.31 162 153 142
0.176951 1.84572 10.31 154 148 136
0.188419 1.84751 10.32 160 154 142
0.200102 1.85109 10.34 150 143 138
0.211625 1.85288 10.35 161 154 149
0.2236 1.85825 10.38 153 147 145
0.235641 1.86362 10.41 145 139 137
0.247748 1.86899 10.44 148 143 138
0.259672 1.87257 10.46 146 141 136
0.27164 1.87616 10.48 149 145 138
0.283652 1.87974 10.5 153 149 142
0.29627 1.8869 10.54 148 148 137
0.308391 1.89048 10.56 146 146 135
0.320859 1.89585 10.59 149 149 138
0.333078 1.89943 10.61 149 149 138
0.345667 1.9048 10.64 161 157 150
0.357649 1.90659 10.65 153 149 142
0.369653 1.90838 10.66 98 90 88
0.382037 1.91196 10.68 81 73 71
0.394096 1.91375 10.69 90 85 89
0.405797 1.91375 10.69 94 89 93
0.417499 1.91375 10.69 105 103 109
-0 0 0 136 129 130
-0 0 0 163 156 157
-0 0 0 167 160 155
-0 0 0 168 161 156
-0 0 0 173 165 163
-0 0 0 177 169 167
-0 0 0 181 174 169
-0 0 0 183 176 171
-0 0 0 177 171 164
-0 0 0 174 168 161
-0 0 0 184 178 171
-0 0 0 183 177 170
-0 0 0 184 179 169
-0.690006 1.85161 10.28 184 179 169
-0.678093 1.84981 10.27 186 181 171
-0.666202 1.84801 10.26 188 183 173
-0.654333 1.84621 10.25 189 184 174
-0.642486 1.84441 10.24 186 181 171
-0.630661 1.84261 10.23 187 181 174
-0.618857 1.8408 10.22 183 177 170
-0.606481 1.8372 10.2 165 156 151
-0.595317 1.8372 10.2 170 161 156
-0.583579 1.8354 10.19 175 166 161
-0.571863 1.8336 10.18 167 158 153
-0.56072 1.8336 10.18 172 163 158
-0.549577 1.8336 10.18 170 161 156
-0.538434 1.8336 10.18 169 162 157
-0.526773 1.8318 10.17 168 161 156
-0.516148 1.8336 10.18 168 161 156
-0.505997 1.8372 10.2 162 155 150
-0.495802 1.8408 10.22 168 161 156
-0.485564 1.84441 10.24 170 163 158
-0.475745 1.84981 10.27 167 159 157
-0.465408 1.85341 10.29 169 161 159
-0.45591 1.86062 10.33 171 165 163
-0.445464 1.86422 10.35 164 158 156
-0.435393 1.86962 10.38 158 155 152
-0.424848 1.87323 10.4 158 155 152
-0.414259 1.87683 10.42 158 155 152
-0.402853 1.87683 10.42 162 159 156
-0.391823 1.87863 10.43 162 158 158
-0.380407 1.87863 10.43 161 157 157
-0.368636 1.87683 10.42 151 148 145
-0.35723 1.87683 10.42 157 154 151
-0.345825 1.87683 10.42 156 153 150
-0.334419 1.87683 10.42 158 155 152
-0.323013 1.87683 10.42 158 155 152
-0.312206 1.88043 10.44 159 156 153
-0.301354 1.88403 10.46 159 156 153
-0.290459 1.88763 10.48 161 158 155
-0.279786 1.89304 10.51 173 170 167
-0.269303 1.90024 10.55 151 148 145
-0.258732 1.90745 10.59 155 152 149
-0.248307 1.91645 10.64 154 151 148
-0.236883 1.91825 10.65 159 157 151
-0.225437 1.92006 10.66 159 157 151
-0.21417 1.92366 10.68 163 161 155
-0.203048 1.92906 10.71 157 155 149
-0.191861 1.93447 10.74 162 159 156
-0.18044 1.93807 10.76 158 155 152
-0.168662 1.93807 10.76 152 146 144
-0.156739 1.93627 10.75 163 157 155
-0.145242 1.93987 10.77 168 162 160
-0.133824 1.94527 10.8 165 159 157
-0.12189 1.94347 10.79 164 158 156
-0.109773 1.93807 10.76 160 154 152
-0.0979951 1.93807 10.76 151 145 143
-0.0862172 1.93807 10.76 151 145 143
-0.0743701 1.93627 10.75 163 157 155
-0.0625449 1.93447 10.74 164 158 156
-0.0507889 1.93447 10.74 157 154 151
-0.0389966 1.93266 10.73 155 152 149
-0.0272007 1.92906 10.71 155 152 149
-0.0154486 1.92546 10.69 155 152 149
-0.00374034 1.92186 10.67 149 146 143
0.0079316 1.92006 10.66 148 145 142
0.0195633 1.91645 10.64 153 148 143
0.0311512 1.91285 10.62 160 155 150
0.0426953 1.90925 10.6 170 164 157
0.0541443 1.90385 10.57 177 171 164
0.0655278 1.89844 10.54 167 161 154
0.0768455 1.89304 10.51 163 157 150
0.0880135 1.88583 10.47 155 147 140
0.0991889 1.88043 10.44 155 147 140
0.110087 1.87142 10.39 163 152 146
0.120992 1.86422 10.35 157 146 140
0.132065 1.86062 10.33 161 151 142
0.143095 1.85701 10.31 161 151 142
0.154081 1.85341 10.29 159 152 142
0.165344 1.85341 10.29 168 161 151
0.176608 1.85341 10.29 144 138 131
0.188054 1.85521 10.3 124 118 111
0.199909 1.86062 10.33 110 104 102
0.211625 1.86422 10.35 96 90 88
0.223385 1.86782 10.37 82 75 76
0.235415 1.87323 10.4 78 71 72
0.247511 1.87863 10.43 89 80 81
0.259424 1.88223 10.45 103 94 95
0.27164 1.88763 10.48 129 123 121
0.283652 1.89124 10.5 144 138 136
0 0 0 139 139 133
0.308683 1.90385 10.57 146 146 140
0.321465 1.91105 10.61 151 152 144
0.334334 1.91825 10.65 160 161 153
0.347291 1.92546 10.69 165 160 155
0.359664 1.92906 10.71 122 117 112
0.371734 1.93086 10.72 87 78 79
0.384899 1.93807 10.76 76 67 68
0.397045 1.93987 10.77 73 69 70
0.408834 1.93987 10.77 83 79 80
0.420232 1.93807 10.76 128 125 129
-0 0 0 137 131 129
-0 0 0 174 168 166
-0 0 0 168 164 157
-0 0 0 160 156 149
-0 0 0 173 168 163
-0 0 0 174 169 164
-0 0 0 176 169 164
-0 0 0 179 172 167
-0 0 0 174 168 161
-0 0 0 186 180 173
-0 0 0 186 180 173
-0 0 0 186 180 173
-0.701258 1.86287 10.28 184 178 171
-0.688663 1.85925 10.26 183 177 170
-0.677433 1.85925 10.26 186 181 171
-0.665553 1.85744 10.25 188 183 173
-0.653695 1.85562 10.24 190 185 175
-0.641858 1.85381 10.23 197 192 182
-0.630044 1.852 10.22 198 193 183
-0.617646 1.84837 10.2 186 181 171
-0.605887 1.84656 10.19 180 174 167
-0.594149 1.84475 10.18 180 174 167
-0.582433 1.84294 10.17 181 175 168
-0.57074 1.84113 10.16 169 163 156
-0.559618 1.84113 10.16 169 161 154
-0.547957 1.83931 10.15 163 155 148
-0.536847 1.83931 10.15 165 157 150
-0.525737 1.83931 10.15 169 161 154
-0.514627 1.83931 10.15 170 161 156
-0.504013 1.84113 10.16 164 155 150
-0.493377 1.84294 10.17 167 160 155
-0.482719 1.84475 10.18 166 159 154
-0.472502 1.84837 10.2 166 159 154
-0.462242 1.852 10.22 166 159 154
-0.452821 1.85925 10.26 159 152 147
-0.442451 1.86287 10.28 159 152 147
-0.431618 1.86468 10.29 159 154 149
-0.421171 1.86831 10.31 157 152 147
-0.410681 1.87193 10.33 158 152 150
-0.399374 1.87193 10.33 166 160 158
-0.388442 1.87374 10.34 164 161 158
-0.376759 1.87193 10.33 165 162 159
-0.365452 1.87193 10.33 158 155 152
-0.354145 1.87193 10.33 159 156 153
-0.342506 1.87012 10.32 156 153 150
-0 0 0 158 155 152
-0 0 0 162 159 156
-0 0 0 161 158 155
-0.298185 1.87556 10.35 157 154 151
-0.287687 1.88099 10.38 150 147 144
-0.277124 1.88643 10.41 161 158 155
-0.266495 1.89187 10.44 161 158 155
-0.256045 1.89911 10.48 163 160 157
-0.24504 1.90274 10.5 161 158 155
-0.233992 1.90636 10.52 159 156 153
-0.222899 1.90999 10.54 158 155 152
-0.211763 1.91361 10.56 158 155 152
-0.200394 1.91542 10.57 156 153 150
-0.189181 1.91905 10.59 159 156 153
-0.178428 1.92811 10.64 159 156 153
-0.167565 1.93717 10.69 157 154 151
-0.155864 1.93717 10.69 157 154 151
-0.144298 1.93898 10.7 160 154 152
-0.132957 1.94442 10.73 159 153 151
-0.120873 1.93898 10.7 158 152 150
-0.108957 1.93536 10.68 153 147 145
-0.0972665 1.93536 10.68 150 144 142
-0.0856563 1.93717 10.69 149 143 141
-0.073955 1.93717 10.69 168 162 160
-0.062312 1.93898 10.7 164 158 156
-0.050647 1.94079 10.71 156 153 150
-0.0388875 1.93898 10.7 150 147 144
-0.0271245 1.93536 10.68 157 154 151
-0.0154053 1.93173 10.66 156 153 150
-0.00372632 1.9263 10.63 152 147 142
0.0078944 1.92267 10.61 153 148 143
0.0194713 1.91905 10.59 169 163 156
0.0310338 1.91724 10.58 187 181 174
0.0425341 1.91361 10.56 180 175 165
0.0538882 1.90636 10.52 176 171 161
0.0652791 1.90274 10.5 159 154 144
0.0764799 1.89549 10.46 160 155 145
0.0875932 1.88824 10.42 152 146 139
0.0987139 1.8828 10.39 145 139 132
0.109663 1.87556 10.35 162 154 147
0.120524 1.86831 10.31 161 153 146
0.131554 1.86468 10.29 157 149 142
0.142679 1.86287 10.28 162 154 147
0.153782 1.86106 10.27 147 140 135
0.164862 1.85925 10.26 133 126 121
0.176436 1.86287 10.28 106 101 96
0.187871 1.86468 10.29 80 75 70
0.199522 1.86831 10.31 66 60 58
0.211421 1.87374 10.34 63 57 55
0.223385 1.87918 10.37 65 58 59
0.235189 1.8828 10.39 65 58 59
0.247273 1.88824 10.42 74 65 67
0.259176 1.89187 10.44 85 76 78
0.271381 1.8973 10.47 97 88 90
0.283652 1.90274 10.5 138 129 131
0 0 0 137 136 133
0.308975 1.91724 10.58 142 141 138
0.322071 1.9263 10.63 156 156 150
0.33559 1.93717 10.69 162 162 156
0 0 0 120 114 112
0 0 0 92 86 84
0 0 0 80 72 70
0 0 0 77 69 67
0 0 0 79 72 73
0 0 0 87 80 81
0 0 0 104 100 100
-0 0 0 95 86 93
-0 0 0 152 146 144
-0 0 0 171 165 163
-0 0 0 169 163 156
-0 0 0 175 169 162
-0 0 0 174 168 161
-0 0 0 175 169 162
-0 0 0 179 173 166
-0 0 0 184 178 171
-0 0 0 189 183 176
-0 0 0 179 173 166
-0 0 0 180 174 167
-0.712511 1.87413 10.28 182 176 169
-0.700576 1.87231 10.27 182 176 169
-0.688663 1.87049 10.26 184 178 171
-0.676772 1.86866 10.25 186 181 171
-0.664903 1.86684 10.24 188 183 173
-0.653056 1.86502 10.23 190 185 175
-0.641231 1.86319 10.22 189 184 174
-0.628811 1.85955 10.2 195 190 180
-0.617041 1.85772 10.19 190 185 175
-0.605292 1.8559 10.18 181 176 166
-0.592982 1.85225 10.16 194 189 179
-0.581861 1.85225 10.16 189 183 176
-0.570178 1.85043 10.15 186 180 173
-0.558517 1.84861 10.14 182 177 167
-0.546878 1.84679 10.13 179 174 164
-0.535789 1.84679 10.13 179 172 162
-0.524701 1.84679 10.13 174 167 157
-0.513613 1.84679 10.13 170 163 153
-0.502525 1.84679 10.13 175 168 158
-0.491436 1.84679 10.13 175 167 160
-0.481296 1.85043 10.15 169 161 154
-0.470649 1.85225 10.16 172 164 157
-0.459528 1.85225 10.16 171 163 156
-0.44929 1.8559 10.18 168 162 155
-0.439008 1.85955 10.2 165 159 152
-0.428682 1.86319 10.22 159 152 147
-0.417903 1.86502 10.23 168 161 156
-0.407103 1.86684 10.24 165 159 157
-0.396281 1.86866 10.25 164 158 156
-0.385061 1.86866 10.25 163 157 155
-0.373842 1.86866 10.25 163 157 155
-0.362268 1.86684 10.24 162 159 156
-0.35106 1.86684 10.24 161 158 155
-0.339851 1.86684 10.24 158 155 152
-0.328321 1.86502 10.23 158 155 152
-0.317123 1.86502 10.23 158 155 152
-0.306225 1.86684 10.24 154 151 148
-0.295592 1.87049 10.26 157 154 151
-0.284916 1.87413 10.28 159 156 153
-0.274196 1.87778 10.3 161 158 155
-0.263687 1.88325 10.33 159 156 153
-0.253357 1.89054 10.37 158 155 152
-0.242473 1.89419 10.39 158 155 152
-0.231545 1.89783 10.41 158 155 152
-0.220573 1.90148 10.43 158 155 152
-0.209357 1.9033 10.44 158 155 152
-0.198309 1.90695 10.46 156 153 150
-0.186859 1.90695 10.46 155 152 149
-0.17541 1.90695 10.46 156 153 150
-0.16396 1.90695 10.46 157 154 151
-0.152802 1.91059 10.48 157 154 151
-0.1416 1.91424 10.5 154 151 148
-0.130231 1.91606 10.51 155 152 149
-0.119066 1.92153 10.54 159 153 151
-0.107835 1.927 10.57 161 155 153
-0.0964468 1.93065 10.59 156 150 148
-0.0850153 1.93429 10.61 151 145 143
-0.0735399 1.93794 10.63 153 147 145
-0.0619626 1.93976 10.64 155 149 147
-0.0504106 1.94341 10.66 152 147 142
-0.0387422 1.94341 10.66 159 154 149
-0.0270229 1.93976 10.64 157 152 147
-0.015333 1.93429 10.61 165 160 155
-0.0037123 1.93065 10.59 177 171 164
0.00786464 1.927 10.57 182 176 169
0.0193794 1.92153 10.54 186 178 171
0.0308578 1.91789 10.52 174 166 159
0.0422925 1.91424 10.5 159 154 144
0.0536321 1.90877 10.47 172 167 157
0.064906 1.9033 10.44 155 149 142
0.0760412 1.89601 10.4 154 148 141
0.0871729 1.89054 10.37 157 151 144
0.0982388 1.88507 10.34 151 145 138
0.109133 1.87778 10.3 140 133 128
0.120174 1.87413 10.28 152 145 140
0.131171 1.87049 10.26 141 131 129
0.142124 1.86684 10.24 126 116 114
0.153332 1.86684 10.24 98 87 88
0.164702 1.86866 10.25 78 67 68
0.176093 1.87049 10.26 71 66 61
0.187689 1.87413 10.28 100 95 90
0.199522 1.8796 10.31 115 110 105
0.211216 1.88325 10.33 113 108 103
0.22317 1.88872 10.36 104 98 96
0.235189 1.89419 10.39 77 71 69
0.247273 1.89965 10.42 80 71 73
0.259176 1.9033 10.44 66 57 59
0.271381 1.90877 10.47 60 50 55
0.283922 1.91606 10.51 80 70 75
0 0 0 108 103 107
0 0 0 147 142 146
0.322979 1.94341 10.66 167 165 165
0 0 0 161 159 159
0 0 0 126 123 120
0 0 0 87 84 81
0 0 0 76 68 66
0 0 0 83 75 73
0 0 0 79 73 71
0 0 0 72 66 64
0 0 0 83 80 77
-0 0 0 130 121 128
-0 0 0 179 173 171
-0 0 0 168 162 160
-0 0 0 162 156 149
-0 0 0 175 169 162
-0 0 0 174 168 161
-0 0 0 175 169 162
-0 0 0 179 173 166
-0 0 0 180 174 167
-0 0 0 179 173 166
-0 0 0 177 171 164
-0 0 0 180 174 167
-0.711818 1.88356 10.27 181 175 168
-0.699212 1.87989 10.25 181 176 166
-0.687321 1.87806 10.24 187 182 172
-0.676112 1.87806 10.24 187 182 172
-0.664254 1.87622 10.23 188 183 173
-0.651141 1.87072 10.2 190 185 175
-0.639976 1.87072 10.2 189 184 174
-0.627578 1.86705 10.18 194 189 179
-0.61583 1.86522 10.17 194 189 179
-0.604103 1.86338 10.16 190 185 175
-0.592398 1.86155 10.15 189 184 174
-0.580715 1.85972 10.14 191 186 176
-0.569054 1.85788 10.13 194 189 179
-0.557415 1.85605 10.12 190 185 175
-0.545798 1.85421 10.11 193 188 178
-0.534732 1.85421 10.11 193 188 178
-0.523665 1.85421 10.11 194 189 179
-0.512092 1.85238 10.1 189 184 174
-0.501036 1.85238 10.1 188 183 173
-0.489981 1.85238 10.1 177 172 162
-0.478925 1.85238 10.1 170 165 155
-0.468333 1.85421 10.11 168 161 151
-0.457267 1.85421 10.11 165 158 148
-0.447083 1.85788 10.13 167 160 150
-0.435995 1.85788 10.13 162 155 145
-0.425745 1.86155 10.15 158 152 145
-0.414635 1.86155 10.15 175 169 162
-0.403923 1.86338 10.16 170 164 157
-0.393188 1.86522 10.17 167 161 154
-0.382056 1.86522 10.17 164 159 154
-0.370559 1.86338 10.16 166 161 156
-0.359084 1.86155 10.15 166 161 156
-0.347974 1.86155 10.15 163 158 153
-0.336864 1.86155 10.15 160 155 150
-0.325433 1.85972 10.14 161 156 151
-0.314643 1.86155 10.15 158 156 150
-0.303533 1.86155 10.15 154 152 146
-0.292999 1.86522 10.17 162 159 156
-0.282421 1.86889 10.19 156 153 150
-0.2718 1.87255 10.21 162 159 156
-0.26139 1.87806 10.24 159 156 153
-0.25067 1.88172 10.26 156 153 150
-0.239906 1.88539 10.28 155 152 149
-0.229098 1.88906 10.3 161 158 155
-0 0 0 161 158 155
-0 0 0 158 155 152
-0 0 0 157 154 151
-0.184894 1.89823 10.35 164 161 158
-0 0 0 157 154 151
-0 0 0 154 151 148
-0 0 0 156 153 150
-0 0 0 146 140 138
-0 0 0 153 147 145
-0.117823 1.9129 10.43 151 145 143
-0.106712 1.9184 10.46 156 150 148
-0.095445 1.92207 10.48 158 150 148
-0.0841339 1.92574 10.5 165 157 155
-0.0727789 1.92941 10.52 161 154 149
-0.0613802 1.93308 10.54 166 159 154
-0.0499377 1.93675 10.56 181 174 169
-0.0384151 1.93858 10.57 179 172 167
-0.0268197 1.93675 10.56 183 177 170
-0.0152174 1.93124 10.53 179 173 166
-0.00368425 1.92758 10.51 179 172 162
0.00781256 1.92574 10.5 179 172 162
0.0192691 1.92207 10.48 172 165 155
0.0306525 1.91657 10.45 165 158 148
0.0419702 1.91107 10.42 165 160 150
0.0532223 1.90557 10.39 166 161 151
0.0644709 1.9019 10.37 160 154 147
0.0756025 1.8964 10.34 162 156 149
0.0866685 1.89089 10.31 168 163 158
0.0976688 1.88539 10.28 157 152 147
0.108709 1.88172 10.26 157 149 147
0.119706 1.87806 10.24 161 153 151
0.130787 1.87622 10.23 124 113 115
0.141846 1.87439 10.22 89 78 80
0.153033 1.87439 10.22 98 87 89
0.16438 1.87622 10.23 100 89 91
0.17575 1.87806 10.24 102 94 92
0.246799 1.9074 10.4 72 65 66
0.258679 1.91107 10.42 56 49 50
0.271122 1.9184 10.46 50 43 45
0.283652 1.92574 10.5 47 40 42
0.296832 1.93675 10.56 47 40 49
0 0 0 97 90 99
0.323888 1.96059 10.69 131 128 132
0 0 0 154 151 155
0.353788 1.99727 10.89 158 155 152
0.368059 2.01011 10.96 130 127 124
0.38075 2.01377 10.98 82 74 72
0.393842 2.01928 11.01 74 66 64
0.406999 2.02478 11.04 93 91 85
0.418704 2.02295 11.03 113 111 105
0.429606 2.01744 11 104 102 96
-0 0 0 153 145 150
-0 0 0 163 157 155
-0 0 0 158 152 150
-0 0 0 152 148 141
-0 0 0 168 164 157
-0 0 0 177 171 164
-0 0 0 179 173 166
-0 0 0 179 173 166
-0 0 0 181 175 168
-0 0 0 183 177 170
-0 0 0 180 174 167
-0.723763 1.89665 10.28 182 174 167
-0.711124 1.89296 10.26 183 175 168
-0.698529 1.88927 10.24 184 176 169
-0.687321 1.88927 10.24 190 182 175
-0.674792 1.88558 10.22 191 184 174
-0.663605 1.88558 10.22 189 182 172
-0.651141 1.88189 10.2 188 181 171
-0.638721 1.8782 10.18 189 182 172
-0.626962 1.87636 10.17 188 181 171
-0.615224 1.87451 10.16 189 182 172
-0.603508 1.87267 10.15 188 183 173
-0.591231 1.86898 10.13 189 184 174
-0.580143 1.86898 10.13 193 188 178
-0.567931 1.86529 10.11 190 185 175
-0.556865 1.86529 10.11 196 191 181
-0.544718 1.8616 10.09 198 193 183
-0.533674 1.8616 10.09 206 199 189
-0.522629 1.8616 10.09 210 203 193
-0.511078 1.85975 10.08 204 197 187
-0.500044 1.85975 10.08 204 197 187
-0.489011 1.85975 10.08 209 202 192
-0.477977 1.85975 10.08 207 200 190
-0.466943 1.85975 10.08 199 192 182
-0.45591 1.85975 10.08 193 186 176
-0.444876 1.85975 10.08 188 181 171
-0.434273 1.8616 10.09 188 181 171
-0.423229 1.8616 10.09 179 172 162
-0.412184 1.8616 10.09 177 170 160
-0.40114 1.8616 10.09 168 161 151
-0.390482 1.86344 10.1 162 155 145
-0.379051 1.8616 10.09 162 156 149
-0.368006 1.8616 10.09 166 160 153
-0.356608 1.85975 10.08 167 161 154
-0.345231 1.85791 10.07 166 160 153
-0.333877 1.85606 10.06 161 156 151
-0.322865 1.85606 10.06 164 159 154
-0.311853 1.85606 10.06 155 150 145
-0.301141 1.85791 10.07 157 152 147
-0.290406 1.85975 10.08 153 151 145
-0.27965 1.8616 10.09 142 140 134
-0.268872 1.86344 10.1 156 154 148
-0.258837 1.87082 10.14 161 159 153
-0.248227 1.87451 10.16 163 161 155
-0.237572 1.8782 10.18 155 153 147
-0.226652 1.88005 10.19 155 153 147
-0 0 0 154 152 146
-0 0 0 158 156 150
-0.193758 1.88558 10.22 153 151 145
-0.182929 1.88927 10.24 150 145 140
-0.170043 1.87082 10.14 157 152 147
-0.158004 1.85975 10.08 151 146 141
-0.147699 1.86898 10.13 152 147 142
-0.137285 1.8782 10.18 152 145 140
-0.127381 1.89665 10.28 175 168 163
-0.116467 1.90219 10.31 177 170 165
-0.10559 1.90957 10.35 180 173 168
-0 0 0 182 175 170
-0 0 0 180 173 168
-0.0720871 1.92248 10.42 174 167 162
-0.0608561 1.92802 10.45 180 173 168
-0.0494648 1.92986 10.46 179 173 166
-0.038088 1.93355 10.48 175 169 162
-0.0266166 1.93355 10.48 181 173 166
-0.0151018 1.92802 10.45 168 160 153
-0.00365971 1.92617 10.44 174 167 157
0.00775303 1.92248 10.42 178 171 161
0.0191036 1.91695 10.39 164 157 147
0.0304178 1.91326 10.37 170 163 153
0.0416883 1.90957 10.35 169 161 154
0.0529149 1.90588 10.33 164 156 149
0.0640357 1.90034 10.3 161 155 148
0.0751638 1.89665 10.28 162 156 149
0.0862482 1.89296 10.26 166 160 158
0.0972888 1.88927 10.24 150 144 142
0.108286 1.88558 10.22 153 146 147
0.119355 1.88374 10.21 151 144 145
0.130403 1.88189 10.2 136 127 129
0.141568 1.88189 10.2 98 89 91
0.152883 1.88374 10.21 96 82 85
0.16422 1.88558 10.22 78 64 67
0.283112 1.93355 10.48 58 51 53
0.29627 1.94462 10.54 40 34 40
0 0 0 49 43 49
0.323282 1.96861 10.67 104 102 108
0.338729 1.99075 10.79 145 143 149
0.355738 2.02027 10.95 138 138 139
0.371418 2.04056 11.06 153 153 154
0.384217 2.04425 11.08 95 92 89
0.397776 2.05163 11.12 93 90 87
0.410317 2.05348 11.13 135 133 127
0.42212 2.05163 11.12 155 153 147
0.433902 2.04979 11.11 148 146 140
-0 0 0 167 159 164
-0 0 0 144 138 136
-0 0 0 173 167 165
-0 0 0 165 161 154
-0 0 0 166 162 155
-0 0 0 175 169 162
-0 0 0 179 173 166
-0 0 0 177 171 164
-0 0 0 181 175 168
-0 0 0 183 175 168
-0 0 0 185 177 170
-0.722355 1.9042 10.26 184 176 169
-0.711124 1.9042 10.26 182 174 167
-0.698529 1.90049 10.24 183 175 168
-0.687321 1.90049 10.24 183 175 168
-0.674792 1.89678 10.22 189 182 172
-0.662955 1.89492 10.21 189 182 172
-0.650503 1.89121 10.19 189 182 172
-0.638721 1.88935 10.18 189 182 172
-0.626345 1.88564 10.16 189 182 172
-0.614619 1.88379 10.15 189 182 172
-0.602319 1.88007 10.13 192 185 175
-0.590647 1.87822 10.12 192 185 175
-0.578997 1.87636 10.11 191 186 176
-0.567369 1.87451 10.1 193 188 178
-0.555763 1.87265 10.09 204 199 189
-0.544178 1.87079 10.08 198 193 183
-0.533145 1.87079 10.08 216 209 199
-0.521593 1.86894 10.07 221 214 204
-0.510064 1.86708 10.06 216 209 199
-0.499052 1.86708 10.06 212 205 195
-0.48804 1.86708 10.06 205 198 188
-0.477029 1.86708 10.06 199 192 182
-0.466017 1.86708 10.06 206 199 189
-0.455005 1.86708 10.06 207 200 190
-0.443994 1.86708 10.06 209 203 191
-0.432982 1.86708 10.06 209 203 191
-0.42197 1.86708 10.06 205 199 187
-0.410959 1.86708 10.06 190 184 172
-0.400344 1.86894 10.07 197 191 179
-0.389322 1.86894 10.07 202 196 184
-0.377924 1.86708 10.06 197 192 182
-0.366547 1.86523 10.05 188 183 173
-0.354839 1.86151 10.03 182 177 167
-0.34386 1.86151 10.03 180 175 165
-0.332549 1.85966 10.02 170 165 160
-0.32126 1.8578 10.01 170 165 160
-0.310304 1.8578 10.01 174 169 164
-0.299347 1.8578 10.01 181 176 171
-0.28839 1.8578 10.01 177 172 167
-0.27771 1.85966 10.02 179 174 169
-0.267008 1.86151 10.03 186 184 178
-0.256285 1.86337 10.04 173 171 165
-0.245783 1.86708 10.06 171 169 163
-0.235239 1.87079 10.08 172 170 164
-0.224427 1.87265 10.09 170 169 161
-0.213383 1.87265 10.09 171 170 162
-0.202539 1.87451 10.1 173 172 164
-0.191673 1.87636 10.11 177 176 168
-0.180071 1.87079 10.08 178 174 167
-0.168366 1.86337 10.04 178 174 167
-0.157847 1.86894 10.07 179 175 168
-0.146824 1.86894 10.07 191 187 180
-0.136611 1.88007 10.13 194 188 181
-0.126142 1.88935 10.18 195 189 182
-0.115338 1.89492 10.21 188 182 175
-0.104468 1.90049 10.24 180 174 167
-0.0935325 1.90606 10.27 180 174 167
-0 0 0 179 173 166
-0 0 0 176 170 163
-0.0602737 1.9209 10.35 176 170 163
-0.0490392 1.92462 10.37 177 169 162
-0.0377245 1.92647 10.38 176 168 161
-0.0263626 1.92647 10.38 178 171 161
-0.0149862 1.92462 10.37 169 162 152
-0.00362817 1.9209 10.35 175 168 158
0.00769351 1.91905 10.34 178 171 161
0.0189749 1.91534 10.32 160 152 145
0.0302125 1.91162 10.3 167 159 152
0.0414466 1.90977 10.29 168 159 154
0.0526076 1.90606 10.27 164 155 150
0.0637248 1.90235 10.25 163 155 153
0.0747982 1.89863 10.23 162 154 152
0.0859119 1.89678 10.22 155 152 149
0.0969087 1.89307 10.2 148 145 142
0.107862 1.88935 10.18 134 130 130
0.119005 1.88935 10.18 135 131 131
0.130148 1.88935 10.18 161 152 154
0.141568 1.89307 10.2 115 106 108
0.152733 1.89307 10.2 74 60 63
0.16422 1.89678 10.22 50 36 39
0 0 0 53 49 55
0 0 0 84 81 90
0.339357 2.00628 10.81 139 136 145
0.358012 2.04525 11.02 130 134 134
0.376455 2.08052 11.21 150 154 154
0.389766 2.08608 11.24 140 139 136
0.403858 2.09536 11.29 130 129 126
0.416216 2.09536 11.29 158 157 149
0.428574 2.09536 11.29 155 154 146
0.43976 2.0898 11.26 159 158 150
0.450479 2.08237 11.22 125 124 116
-0 0 0 142 138 139
-0 0 0 172 168 169
-0 0 0 167 161 159
-0 0 0 167 161 159
-0 0 0 170 166 159
-0 0 0 174 170 163
-0 0 0 175 169 162
-0 0 0 179 173 166
-0 0 0 179 173 166
-0 0 0 181 175 168
-0 0 0 182 176 169
-0 0 0 182 176 169
-0.722355 1.91544 10.26 183 177 170
-0.710431 1.91357 10.25 181 175 168
-0.698529 1.91171 10.24 183 175 168
-0.685978 1.90797 10.22 185 177 170
-0.674131 1.9061 10.21 189 182 172
-0.662306 1.90424 10.2 185 178 168
-0.649864 1.9005 10.18 188 181 171
-0.638094 1.89864 10.17 186 179 169
-0.626345 1.89677 10.16 190 183 173
-0.614013 1.89304 10.14 188 181 171
-0.602319 1.89117 10.13 190 183 173
-0.590064 1.88744 10.11 192 185 175
-0.578425 1.88557 10.1 191 184 174
-0.566807 1.8837 10.09 192 185 175
-0.555212 1.88184 10.08 204 197 187
-0.543639 1.87997 10.07 198 191 181
-0.532087 1.8781 10.06 211 204 194
-0.521075 1.8781 10.06 217 210 200
-0.509557 1.87623 10.05 214 207 197
-0.49806 1.87437 10.04 210 203 193
-0.48707 1.87437 10.04 203 196 186
-0.47608 1.87437 10.04 199 192 182
-0.465091 1.87437 10.04 198 191 181
-0.454101 1.87437 10.04 198 191 181
-0.443111 1.87437 10.04 199 193 181
-0.432121 1.87437 10.04 200 194 182
-0.421131 1.87437 10.04 206 200 188
-0.410142 1.87437 10.04 213 207 195
-0.399152 1.87437 10.04 214 208 196
-0.388162 1.87437 10.04 196 190 178
-0.377172 1.87437 10.04 193 189 177
-0.365818 1.8725 10.03 187 183 171
-0.354131 1.86877 10.01 186 182 170
-0.343174 1.86877 10.01 200 196 184
-0.331554 1.86503 9.99 196 192 185
-0.320619 1.86503 9.99 186 182 175
-0.309374 1.86317 9.98 187 182 177
-0.29815 1.8613 9.97 192 187 182
-0.286949 1.85943 9.96 182 177 172
-0.276047 1.85943 9.96 192 187 182
-0.265677 1.86317 9.98 199 194 189
-0.254753 1.86317 9.98 186 181 176
-0.243829 1.86317 9.98 182 177 172
-0.233138 1.86503 9.99 187 182 177
-0.222648 1.86877 10.01 187 183 176
-0.21148 1.8669 10 185 181 174
-0.200734 1.86877 10.01 185 181 174
-0.189777 1.86877 10.01 185 181 174
-0.179177 1.8725 10.03 186 182 175
-0.168031 1.87063 10.02 185 181 174
-0.15722 1.8725 10.03 186 182 175
-0.146387 1.87437 10.04 188 184 177
-0.135667 1.8781 10.06 188 182 175
-0.124779 1.87997 10.07 181 175 168
-0.114095 1.88557 10.1 180 174 167
-0.103346 1.89117 10.13 181 175 168
-0.0925307 1.89677 10.16 181 175 168
-0.0816499 1.90237 10.19 179 173 166
-0 0 0 178 170 163
-0 0 0 176 168 161
-0.0485663 1.91731 10.27 174 167 157
-0.0373611 1.91917 10.28 175 168 158
-0.026134 1.92104 10.29 176 169 159
-0.0148706 1.92104 10.29 174 167 157
-0.00360363 1.91917 10.28 176 169 159
0 0 0 179 172 162
0.0188646 1.91544 10.26 177 169 162
0.0300365 1.91171 10.24 171 163 156
0.0411647 1.90797 10.22 165 158 153
0.0523003 1.9061 10.21 160 153 148
0.063414 1.90424 10.2 162 155 150
0.0744326 1.9005 10.18 163 156 151
0.0854916 1.89864 10.17 158 154 154
0.0966237 1.89864 10.17 154 150 150
0.10765 1.89677 10.16 141 137 137
0.118771 1.89677 10.16 154 150 150
0.13002 1.89864 10.17 165 158 160
0.141291 1.9005 10.18 134 127 129
0.152584 1.90237 10.19 79 68 70
0.322071 1.98451 10.63 67 65 71
0.338729 2.01439 10.79 124 122 128
0.357362 2.05359 11 128 131 134
0.377462 2.0984 11.24 128 131 134
0.390806 2.104 11.27 140 141 138
0.404215 2.1096 11.3 135 136 133
0.416953 2.11146 11.31 139 140 132
0.429333 2.11146 11.31 153 154 146
0.441322 2.1096 11.3 165 163 157
0.452487 2.104 11.27 147 145 139
-0 0 0 157 150 152
-0 0 0 170 163 165
-0 0 0 165 159 157
-0 0 0 163 157 155
-0 0 0 167 162 157
-0 0 0 177 172 167
-0 0 0 175 169 162
-0 0 0 174 168 161
-0 0 0 181 175 168
-0.75752 1.93043 10.28 177 171 164
-0 0 0 176 170 163
-0 0 0 176 170 163
-0.721651 1.9248 10.25 183 177 170
-0.709738 1.92292 10.24 180 174 167
-0.697165 1.91917 10.22 183 175 168
-0.685307 1.91729 10.21 185 177 170
-0.674131 1.91729 10.21 188 180 173
-0.661657 1.91353 10.19 184 176 169
-0.649864 1.91166 10.18 188 181 171
-0.637466 1.9079 10.16 189 182 172
-0.625729 1.90602 10.15 190 183 173
-0.614013 1.90414 10.14 190 183 173
-0.601725 1.90039 10.12 190 183 173
-0.590064 1.89851 10.11 192 185 175
-0.577852 1.89475 10.09 193 186 176
-0.566246 1.89288 10.08 197 190 180
-0.554661 1.891 10.07 197 190 180
-0.543099 1.88912 10.06 195 188 178
-0.531558 1.88724 10.05 198 191 181
-0.520039 1.88537 10.04 202 195 185
-0.50905 1.88537 10.04 198 191 181
-0.497564 1.88349 10.03 200 193 183
-0.486585 1.88349 10.03 202 195 185
-0.475606 1.88349 10.03 198 191 181
-0.464627 1.88349 10.03 198 192 180
-0.453648 1.88349 10.03 197 191 179
-0.44267 1.88349 10.03 193 187 175
-0.431691 1.88349 10.03 196 190 178
-0.420712 1.88349 10.03 196 190 178
-0.409325 1.88161 10.02 197 191 179
-0.398754 1.88349 10.03 202 196 184
-0.387775 1.88349 10.03 195 189 177
-0.376421 1.88161 10.02 193 189 177
-0.365088 1.87973 10.01 194 190 178
-0.353424 1.87598 9.99 184 180 168
-0.342489 1.87598 9.99 188 184 172
-0.331222 1.8741 9.98 187 181 174
-0.319977 1.87222 9.97 184 178 171
-0.308754 1.87034 9.96 181 177 170
-0.297851 1.87034 9.96 185 181 174
-0.286373 1.86659 9.94 180 175 170
-0.275493 1.86659 9.94 182 177 172
-0.264612 1.86659 9.94 180 175 170
-0.253477 1.86471 9.93 180 175 170
-0.242852 1.86659 9.94 180 176 169
-0.231971 1.86659 9.94 182 178 171
-0.221091 1.86659 9.94 184 180 173
-0.210211 1.86659 9.94 184 180 173
-0.19933 1.86659 9.94 184 181 171
-0.18845 1.86659 9.94 184 181 171
-0.177748 1.86846 9.95 185 182 172
-0.166689 1.86659 9.94 185 182 172
-0.156123 1.87034 9.96 180 175 165
-0.145366 1.87222 9.97 181 176 166
-0.134588 1.8741 9.98 183 178 168
-0.123788 1.87598 9.99 181 176 166
-0.113078 1.87973 10.01 181 174 164
-0.102428 1.88537 10.04 181 174 164
-0.0918021 1.89288 10.08 184 177 167
-0.0810089 1.89851 10.11 181 174 164
-0.0700808 1.90227 10.13 178 171 161
-0.059109 1.90602 10.15 179 172 162
-0.0481407 1.91166 10.18 169 162 152
-0.0370703 1.91541 10.2 177 170 160
-0.0259308 1.91729 10.21 175 168 158
-0.014755 1.91729 10.21 172 165 155
-0.00357558 1.91541 10.2 174 167 157
0.00758934 1.91541 10.2 167 160 150
0.0187175 1.91166 10.18 167 161 154
0.0298312 1.90978 10.17 167 161 154
0.040923 1.9079 10.16 167 161 154
0.0519929 1.90602 10.15 167 161 154
0.0631031 1.90602 10.15 160 155 150
0.0741402 1.90414 10.14 159 154 149
0.0852394 1.90414 10.14 156 152 152
0.0963387 1.90414 10.14 150 146 146
0.107438 1.90414 10.14 151 147 147
0.118654 1.90602 10.15 151 147 147
0.129764 1.90602 10.15 155 148 150
0.141152 1.90978 10.17 149 142 144
0.152434 1.91166 10.18 104 95 97
0.337787 2.02057 10.76 112 110 116
0.356712 2.06188 10.98 134 138 138
0.377798 2.11259 11.25 120 124 124
0 0 0 124 125 122
0 0 0 137 138 135
0.417322 2.12573 11.32 146 147 139
0.429712 2.12573 11.32 149 150 142
0 0 0 161 160 152
0 0 0 158 157 149
-0 0 0 164 157 158
-0 0 0 164 157 158
-0 0 0 159 153 151
-0 0 0 161 155 153
-0 0 0 165 160 155
-0 0 0 168 163 158
-0 0 0 174 167 162
-0 0 0 165 158 153
-0 0 0 172 165 160
-0.75752 1.94169 10.28 181 174 169
-0 0 0 179 173 166
-0.733586 1.93792 10.26 179 173 166
-0.720947 1.93414 10.24 187 181 174
-0.709738 1.93414 10.24 180 174 167
-0.697165 1.93036 10.22 182 174 167
-0.685307 1.92847 10.21 183 175 168
-0.673471 1.92658 10.2 186 178 171
-0.661007 1.92281 10.18 188 180 173
-0.649226 1.92092 10.17 188 181 171
-0.637466 1.91903 10.16 189 182 172
-0.625112 1.91525 10.14 189 182 172
-0.613408 1.91336 10.13 188 181 171
-0.60113 1.90958 10.11 189 182 172
-0.58948 1.9077 10.1 190 183 173
-0.577279 1.90392 10.08 190 183 173
-0.565684 1.90203 10.07 192 185 175
-0.55411 1.90014 10.06 186 179 169
-0.542019 1.89636 10.04 192 185 175
-0.531029 1.89636 10.04 190 183 173
-0.519522 1.89447 10.03 196 189 179
-0.508543 1.89447 10.03 195 185 176
-0.497068 1.89259 10.02 198 188 179
-0.4861 1.89259 10.02 193 186 176
-0.474658 1.8907 10.01 193 186 176
-0.464164 1.89259 10.02 195 188 178
-0.453196 1.89259 10.02 195 188 178
-0.442228 1.89259 10.02 193 187 175
-0.43083 1.8907 10.01 195 189 177
-0.419873 1.8907 10.01 193 187 175
-0.408916 1.8907 10.01 185 179 167
-0.397959 1.8907 10.01 198 192 180
-0.386616 1.88881 10 192 186 174
-0.37567 1.88881 10 186 180 168
-0.364359 1.88692 9.99 193 187 175
-0.35307 1.88503 9.98 193 189 177
-0.342146 1.88503 9.98 183 179 167
-0.33089 1.88314 9.97 186 181 171
-0.319977 1.88314 9.97 186 181 171
-0.308754 1.88125 9.96 183 177 170
-0.297552 1.87936 9.95 187 181 174
-0.286373 1.87747 9.94 186 180 173
-0.275493 1.87747 9.94 184 178 171
-0.264612 1.87747 9.94 182 176 169
-0.253477 1.87559 9.93 182 176 169
-0.242607 1.87559 9.93 185 177 170
-0.231738 1.87559 9.93 186 178 171
-0.220869 1.87559 9.93 188 181 171
-0.209999 1.87559 9.93 188 181 171
-0.19913 1.87559 9.93 186 179 169
-0.18845 1.87747 9.94 185 178 168
-0.17757 1.87747 9.94 186 179 169
-0.166689 1.87747 9.94 191 184 174
-0.155966 1.87936 9.95 188 181 171
-0.14522 1.88125 9.96 184 177 167
-0.134318 1.88125 9.96 183 176 166
-0.12354 1.88314 9.97 183 176 166
-0.11274 1.88503 9.98 179 172 162
-0.101917 1.88692 9.99 178 171 161
-0.0912556 1.89259 10.02 183 176 166
-0.080448 1.89636 10.04 181 174 164
-0.0696658 1.90203 10.07 179 172 162
-0.0587596 1.90581 10.09 181 174 164
-0.0478097 1.90958 10.11 176 169 159
-0.0368159 1.91336 10.13 179 172 162
-0.0257784 1.91714 10.15 174 167 157
-0.0146682 1.91714 10.15 174 167 157
-0.00355806 1.91714 10.15 174 166 159
0.00753726 1.91336 10.13 174 166 159
0.0186256 1.91336 10.13 166 160 153
0.0296552 1.90958 10.11 165 159 152
0.0407216 1.90958 10.11 165 158 153
0.0517368 1.9077 10.1 167 160 155
0.0628544 1.90958 10.11 161 156 151
0.0739208 1.90958 10.11 163 158 153
0.0849872 1.90958 10.11 153 150 147
0.0960536 1.90958 10.11 149 146 143
0.107226 1.91147 10.12 150 146 146
0.11842 1.91336 10.13 147 143 143
0.129636 1.91525 10.14 137 130 132
0.141013 1.91903 10.16 153 146 148
0.152434 1.92281 10.18 134 125 127
0.163738 1.92469 10.19 61 52 54
0 0 0 93 92 96
0 0 0 136 140 139
0 0 0 123 127 126
0 0 0 123 128 124
0.405288 2.14002 11.33 132 137 133
0 0 0 148 144 137
0.430851 2.1438 11.35 149 145 138
0 0 0 159 155 148
0 0 0 164 160 153
-0 0 0 165 156 157
-0 0 0 165 156 157
-0 0 0 167 161 159
-0 0 0 159 153 151
-0 0 0 171 166 161
-0 0 0 174 169 164
-0 0 0 162 155 150
-0 0 0 163 156 151
-0.768773 1.95295 10.28 173 166 161
-0.756784 1.95105 10.27 180 173 168
-0.744816 1.94915 10.26 177 171 164
-0.732871 1.94726 10.25 176 170 163
-0.720947 1.94536 10.24 195 187 180
-0.709045 1.94346 10.23 195 187 180
-0.696483 1.93966 10.21 188 180 173
-0.684636 1.93776 10.2 181 173 166
-0.672811 1.93586 10.19 188 180 173
-0.661007 1.93396 10.18 188 180 173
-0.648588 1.93016 10.16 186 179 169
-0.636839 1.92826 10.15 189 182 172
-0.624496 1.92446 10.13 189 182 172
-0.613408 1.92446 10.13 185 178 168
-0.60113 1.92066 10.11 186 179 169
-0.588896 1.91686 10.09 189 182 172
-0.577279 1.91496 10.08 191 184 174
-0.565122 1.91116 10.06 191 184 174
-0.553009 1.90736 10.04 189 182 172
-0.541479 1.90546 10.03 191 184 174
-0.5305 1.90546 10.03 191 184 174
-0.519004 1.90356 10.02 192 185 175
-0.507529 1.90166 10.01 191 184 174
-0.496572 1.90166 10.01 193 186 176
-0.485615 1.90166 10.01 193 186 176
-0.474658 1.90166 10.01 193 186 176
-0.463701 1.90166 10.01 193 186 176
-0.452744 1.90166 10.01 193 186 176
-0.441787 1.90166 10.01 193 187 175
-0.4304 1.89976 10 193 187 175
-0.419034 1.89786 9.99 192 186 174
-0.408099 1.89786 9.99 186 180 168
-0.397164 1.89786 9.99 189 183 169
-0.386229 1.89786 9.99 190 184 170
-0.374918 1.89596 9.98 193 187 173
-0.363994 1.89596 9.98 193 187 173
-0.352716 1.89406 9.97 192 186 172
-0.341803 1.89406 9.97 188 182 168
-0.330558 1.89216 9.96 188 181 171
-0.319656 1.89216 9.96 186 179 169
-0.308444 1.89026 9.95 185 178 168
-0.297253 1.88836 9.94 188 181 171
-0.286373 1.88836 9.94 190 183 173
-0.275493 1.88836 9.94 190 183 173
-0.264346 1.88646 9.93 190 183 173
-0.253477 1.88646 9.93 189 182 172
-0.242607 1.88646 9.93 184 177 167
-0.231738 1.88646 9.93 183 176 166
-0.220646 1.88456 9.92 183 176 166
-0.209999 1.88646 9.93 190 183 173
-0.19913 1.88646 9.93 190 183 173
-0.18826 1.88646 9.93 189 182 172
-0.177391 1.88646 9.93 185 178 168
-0.166689 1.88836 9.94 184 177 167
-0.155809 1.88836 9.94 184 177 167
-0.145074 1.89026 9.95 183 176 166
-0.134318 1.89216 9.96 184 177 167
-0.123416 1.89216 9.96 183 176 166
-0.112627 1.89406 9.97 178 171 161
-0.101815 1.89596 9.98 178 171 161
-0.0910735 1.89976 10 177 170 160
-0.0802076 1.90166 10.01 184 177 167
-0.069389 1.90546 10.03 178 171 161
-0.0584684 1.90736 10.04 177 170 160
-0.0475259 1.90926 10.05 177 170 160
-0.0365979 1.91306 10.07 181 174 164
-0.0256007 1.91496 10.08 165 157 150
-0.0145815 1.91686 10.09 170 162 155
-0.00353352 1.91496 10.08 175 167 160
0.00750005 1.91496 10.08 176 168 161
0.0185336 1.91496 10.08 168 162 155
0.0295672 1.91496 10.08 174 168 161
0.0405605 1.91306 10.07 166 159 154
0.0515831 1.91306 10.07 165 158 153
0.0626057 1.91306 10.07 161 156 151
0.0737015 1.91496 10.08 160 155 150
0.0847351 1.91496 10.08 160 154 152
0.0958636 1.91686 10.09 151 145 143
0.107014 1.91876 10.1 144 140 141
0.118186 1.92066 10.11 142 138 139
0.129509 1.92446 10.13 137 133 134
0.140874 1.92826 10.15 137 133 134
0.152134 1.93016 10.16 145 136 138
0.163577 1.93396 10.18 74 65 67
0 0 0 84 82 83
0 0 0 135 140 136
0 0 0 126 131 127
0 0 0 128 130 124
0.406719 2.16003 11.37 132 134 128
0.419165 2.16003 11.37 151 147 140
0.43161 2.16003 11.37 149 145 138
0.443666 2.15813 11.36 152 148 141
0 0 0 165 161 154
0 0 0 110 103 104
-0 0 0 166 160 158
-0 0 0 163 157 155
-0 0 0 170 164 162
-0 0 0 164 158 156
-0 0 0 170 165 160
-0 0 0 177 172 167
-0 0 0 165 160 155
-0 0 0 164 159 154
-0 0 0 174 167 162
-0.756047 1.96039 10.26 174 167 162
-0.74409 1.95848 10.25 179 173 166
-0.732156 1.95657 10.24 177 171 164
-0.720947 1.95657 10.24 188 182 175
-0.708352 1.95275 10.22 193 187 180
-0.697165 1.95275 10.22 179 171 164
-0.683965 1.94702 10.19 178 170 163
-0.67215 1.94511 10.18 188 180 173
-0.659709 1.94129 10.16 188 180 173
-0.647949 1.93938 10.15 186 179 169
-0.636839 1.93938 10.15 188 181 171
-0.624496 1.93555 10.13 188 181 171
-0.612197 1.93173 10.11 185 178 168
-0.599941 1.92791 10.09 186 179 169
-0.588313 1.926 10.08 190 183 173
-0.576707 1.92409 10.07 192 185 175
-0.56456 1.92027 10.05 185 178 168
-0.553009 1.91836 10.04 183 176 166
-0.541479 1.91645 10.03 192 185 175
-0.529443 1.91263 10.01 192 185 175
-0.518486 1.91263 10.01 191 184 174
-0.507529 1.91263 10.01 192 185 175
-0.496076 1.91071 10 193 186 176
-0.48513 1.91071 10 193 186 176
-0.474184 1.91071 10 193 186 176
-0.463238 1.91071 10 193 186 176
-0.452292 1.91071 10 193 186 176
-0.441346 1.91071 10 193 187 175
-0.429969 1.9088 9.99 193 187 175
-0.419034 1.9088 9.99 191 185 173
-0.408099 1.9088 9.99 189 183 171
-0.397164 1.9088 9.99 188 182 168
-0.385842 1.90689 9.98 188 182 168
-0.374918 1.90689 9.98 181 172 159
-0.363629 1.90498 9.97 193 184 171
-0.352362 1.90307 9.96 193 184 171
-0.34146 1.90307 9.96 198 189 176
-0.330558 1.90307 9.96 198 189 176
-0.319656 1.90307 9.96 190 181 168
-0.308444 1.90116 9.95 194 185 174
-0.297253 1.89925 9.94 193 184 173
-0.286373 1.89925 9.94 188 179 168
-0.275493 1.89925 9.94 188 179 168
-0.264346 1.89734 9.93 188 179 168
-0.253477 1.89734 9.93 188 179 168
-0.242607 1.89734 9.93 186 176 167
-0.231505 1.89543 9.92 187 177 168
-0.220424 1.89352 9.91 184 174 165
-0.209576 1.89352 9.91 186 176 167
-0.198929 1.89543 9.92 188 181 171
-0.18826 1.89734 9.93 181 174 164
-0.177391 1.89734 9.93 185 178 168
-0.166689 1.89925 9.94 185 178 168
-0.155809 1.89925 9.94 188 181 171
-0.145074 1.90116 9.95 189 182 172
-0.134183 1.90116 9.95 183 176 166
-0.123416 1.90307 9.96 182 175 165
-0.112514 1.90307 9.96 181 174 164
-0.101611 1.90307 9.96 179 172 162
-0.0908914 1.90689 9.98 169 162 152
-0.0799672 1.90689 9.98 179 172 162
-0.0691123 1.9088 9.99 177 170 160
-0.0582355 1.91071 10 177 170 160
-0.0473368 1.91263 10.01 176 169 159
-0.0364162 1.91454 10.02 176 169 159
-0.0254737 1.91645 10.03 171 163 156
-0.0144948 1.91645 10.03 168 160 153
-0.0035195 1.91836 10.04 167 159 152
0.00747029 1.91836 10.04 170 162 155
0.0184601 1.91836 10.04 169 163 156
0.0294499 1.91836 10.04 166 160 153
0.0404397 1.91836 10.04 160 154 147
0.0514294 1.91836 10.04 163 157 150
0.0624192 1.91836 10.04 156 151 146
0.0734821 1.92027 10.05 156 151 146
0.0845669 1.92218 10.06 160 155 150
0.0957686 1.926 10.08 161 156 151
0.106908 1.92791 10.09 148 144 145
0.11807 1.92982 10.1 143 139 140
0.129381 1.93364 10.12 137 129 134
0.140597 1.93555 10.13 134 126 131
0.151985 1.93938 10.15 151 142 144
0.163416 1.9432 10.17 88 79 81
0 0 0 130 129 126
0 0 0 140 139 136
0 0 0 133 133 127
0 0 0 133 133 127
0 0 0 151 146 141
0 0 0 151 146 141
0 0 0 152 147 142
0 0 0 168 163 158
0 0 0 127 118 119
-0 0 0 162 153 148
-0 0 0 173 167 165
-0 0 0 165 159 157
-0 0 0 164 158 156
-0 0 0 160 154 152
-0 0 0 153 147 145
-0 0 0 165 159 157
-0 0 0 170 165 160
-0 0 0 173 168 163
-0 0 0 173 168 163
-0.756047 1.97163 10.26 174 169 164
-0.743364 1.96779 10.24 179 173 166
-0.731441 1.96587 10.23 180 174 167
-0.719539 1.96395 10.22 180 174 167
-0.708352 1.96395 10.22 179 173 166
-0.695801 1.9601 10.2 181 173 166
-0.683965 1.95818 10.19 185 177 170
-0.67149 1.95434 10.17 185 177 170
-0.659059 1.95049 10.15 185 177 170
-0.647949 1.95049 10.15 186 179 169
-0.635584 1.94665 10.13 186 179 169
-0.623879 1.94473 10.12 184 177 167
-0.612197 1.94281 10.11 184 177 167
-0.599941 1.93896 10.09 186 179 169
-0.588313 1.93704 10.08 190 183 173
-0.576134 1.9332 10.06 193 186 176
-0.563999 1.92936 10.04 196 189 179
-0.552458 1.92743 10.03 190 183 173
-0.540399 1.92359 10.01 195 188 178
-0.529443 1.92359 10.01 190 183 173
-0.517968 1.92167 10 191 184 174
-0.506515 1.91975 9.99 192 185 175
-0.49558 1.91975 9.99 198 191 181
-0.484644 1.91975 9.99 195 188 178
-0.473709 1.91975 9.99 193 186 176
-0.462774 1.91975 9.99 193 186 176
-0.451839 1.91975 9.99 190 183 173
-0.440904 1.91975 9.99 189 183 171
-0.429969 1.91975 9.99 188 182 170
-0.418615 1.91782 9.98 192 186 174
-0.407691 1.91782 9.98 193 187 175
-0.396766 1.91782 9.98 186 180 166
-0.385842 1.91782 9.98 185 179 165
-0.374543 1.9159 9.97 179 170 157
-0.363629 1.9159 9.97 193 184 171
-0.352362 1.91398 9.96 198 189 176
-0.34146 1.91398 9.96 186 177 164
-0.330558 1.91398 9.96 183 174 161
-0.319656 1.91398 9.96 177 168 155
-0.308444 1.91206 9.95 201 192 181
-0.297253 1.91014 9.94 193 184 173
-0.286373 1.91014 9.94 188 179 168
-0.275493 1.91014 9.94 188 179 168
-0.264346 1.90822 9.93 187 178 167
-0.253477 1.90822 9.93 187 178 167
-0.242363 1.9063 9.92 187 178 167
-0.231271 1.90437 9.91 191 182 171
-0.220424 1.90437 9.91 192 183 172
-0.209576 1.90437 9.91 194 185 174
-0.198729 1.90437 9.91 195 186 175
-0.188071 1.9063 9.92 181 172 161
-0.177212 1.9063 9.92 185 179 167
-0.166522 1.90822 9.93 189 183 171
-0.155809 1.91014 9.94 188 182 170
-0.144929 1.91014 9.94 184 178 166
-0.134183 1.91206 9.95 184 178 166
-0.123416 1.91398 9.96 182 176 164
-0.112514 1.91398 9.96 181 175 163
-0.101611 1.91398 9.96 179 173 161
-0.0908003 1.9159 9.97 169 163 151
-0.0799672 1.91782 9.98 175 169 157
-0.0690431 1.91782 9.98 175 168 158
-0.0581773 1.91975 9.99 162 155 145
-0.0472422 1.91975 9.99 170 163 153
-0.0363798 1.92359 10.01 174 167 157
-0.0254229 1.92359 10.01 172 164 157
-0.0144659 1.92359 10.01 178 170 163
-0.00351248 1.92551 10.02 171 163 156
0.00745541 1.92551 10.02 168 160 153
0.0184233 1.92551 10.02 174 168 161
0.0293912 1.92551 10.02 166 160 153
0.0403591 1.92551 10.02 157 151 144
0.051327 1.92551 10.02 161 155 148
0.0623571 1.92743 10.03 157 153 146
0.073409 1.92936 10.04 156 152 145
0.0843988 1.92936 10.04 150 145 140
0.0955786 1.9332 10.06 155 150 145
0.106802 1.93704 10.08 158 154 154
0.117953 1.93896 10.09 155 151 151
0.129125 1.94089 10.1 135 127 132
0.140458 1.94473 10.12 142 134 139
0.151835 1.94857 10.14 154 145 147
0.163095 1.95049 10.15 101 92 94
0 0 0 125 124 121
0 0 0 137 136 133
0 0 0 126 126 120
0 0 0 127 127 121
0 0 0 151 149 143
0 0 0 155 153 147
0 0 0 154 152 146
0 0 0 170 168 162
0 0 0 139 130 131
-0 0 0 159 151 149
-0 0 0 155 149 147
-0 0 0 159 153 151
-0 0 0 159 153 151
-0 0 0 164 158 156
-0 0 0 163 157 155
-0 0 0 166 160 158
-0 0 0 179 174 169
-0 0 0 174 169 164
-0.767277 1.98287 10.26 171 167 160
-0.75531 1.98094 10.25 175 171 164
-0.743364 1.979 10.24 177 171 164
-0.731441 1.97707 10.23 180 174 167
-0.719539 1.97514 10.22 181 175 168
-0.707659 1.97321 10.21 180 174 167
-0.695801 1.97127 10.2 183 175 168
-0.683293 1.96741 10.18 185 177 170
-0.67083 1.96354 10.16 185 177 170
-0.659059 1.96161 10.15 184 176 169
-0.647311 1.95968 10.14 186 179 169
-0.634957 1.95581 10.12 186 179 169
-0.623263 1.95388 10.11 185 178 168
-0.610985 1.95002 10.09 188 181 171
-0.599346 1.94808 10.08 188 181 171
-0.587146 1.94422 10.06 191 184 174
-0.575561 1.94229 10.05 196 189 179
-0.563999 1.94035 10.04 199 192 182
-0.551907 1.93649 10.02 193 186 176
-0.540399 1.93455 10.01 195 188 178
-0.528914 1.93262 10 190 183 173
-0.51745 1.93069 9.99 190 183 173
-0.506515 1.93069 9.99 192 185 175
-0.49558 1.93069 9.99 197 190 180
-0.484159 1.92876 9.98 193 186 176
-0.473235 1.92876 9.98 196 189 179
-0.462311 1.92876 9.98 195 188 178
-0.451387 1.92876 9.98 190 183 173
-0.440463 1.92876 9.98 191 184 174
-0.429539 1.92876 9.98 191 184 174
-0.418615 1.92876 9.98 190 185 175
-0.407282 1.92682 9.97 183 178 168
-0.396369 1.92682 9.97 179 173 159
-0.385456 1.92682 9.97 174 168 154
-0.374167 1.92489 9.96 181 170 157
-0.363265 1.92489 9.96 179 168 155
-0.352362 1.92489 9.96 183 172 159
-0.341117 1.92296 9.95 189 178 165
-0.330226 1.92296 9.95 188 177 166
-0.319335 1.92296 9.95 183 172 161
-0.308444 1.92296 9.95 183 172 161
-0.297253 1.92103 9.94 179 168 157
-0.286373 1.92103 9.94 189 178 167
-0.275215 1.91909 9.93 190 179 168
-0.264346 1.91909 9.93 188 177 166
-0.253477 1.91909 9.93 187 176 165
-0.242119 1.91523 9.91 186 177 166
-0.231271 1.91523 9.91 190 181 170
-0.220424 1.91523 9.91 190 181 170
-0.209365 1.9133 9.9 191 182 171
-0.198729 1.91523 9.91 194 185 174
-0.187881 1.91523 9.91 201 192 181
-0.177034 1.91523 9.91 199 193 181
-0.166354 1.91716 9.92 200 194 182
-0.155652 1.91909 9.93 189 183 171
-0.144929 1.92103 9.94 185 179 167
-0.134048 1.92103 9.94 184 178 166
-0.123292 1.92296 9.95 186 180 168
-0.112514 1.92489 9.96 182 176 164
-0.101611 1.92489 9.96 181 175 163
-0.0907092 1.92489 9.96 182 176 164
-0.0798871 1.92682 9.97 175 169 157
-0.0690431 1.92876 9.98 176 170 158
-0.058119 1.92876 9.98 172 166 154
-0.0471949 1.92876 9.98 171 164 154
-0.0363071 1.93069 9.99 172 165 155
-0.0253721 1.93069 9.99 170 162 155
-0.0144515 1.93262 10 169 161 154
-0.00350547 1.93262 10 169 161 154
0.00744797 1.93455 10.01 167 159 152
0.0184049 1.93455 10.01 172 164 157
0.0293619 1.93455 10.01 172 164 157
0.0403188 1.93455 10.01 169 163 156
0.0512758 1.93455 10.01 157 151 144
0.0622949 1.93649 10.02 155 149 142
0.0733359 1.93842 10.03 159 153 146
0.0843988 1.94035 10.04 156 151 146
0.0954836 1.94229 10.05 158 153 148
0.10659 1.94422 10.06 139 135 135
0.117836 1.94808 10.08 154 150 150
0.128997 1.95002 10.09 133 128 132
0.140319 1.95388 10.11 142 137 141
0.151685 1.95775 10.13 155 145 150
0.162934 1.95968 10.14 122 112 117
0 0 0 124 123 120
0 0 0 123 122 119
0 0 0 145 144 141
0 0 0 140 139 136
0 0 0 143 140 137
0 0 0 141 138 135
0 0 0 150 147 144
0.454093 2.1858 11.31 169 166 163
0.465235 2.18 11.28 148 139 140
-0 0 0 163 156 157
-0 0 0 156 152 152
-0 0 0 158 154 154
-0 0 0 178 171 172
-0 0 0 172 165 166
-0 0 0 175 169 167
-0 0 0 180 174 172
-0 0 0 181 176 171
