ply
format ascii 1.0
comment Created by Open3D
element vertex 1397
property double x
property double y
property double z
property uchar red
property uchar green
property uchar blue
end_header
-1.17438 2.78682 8.7 147 158 150
-1.16352 2.78362 8.69 151 161 156
-1.15135 2.77721 8.67 150 160 155
-1.14054 2.77401 8.66 148 158 153
-1.12976 2.77081 8.65 146 156 151
-1.119 2.7676 8.64 145 155 150
-1.10954 2.7676 8.64 145 155 150
-1.09881 2.7644 8.63 148 158 153
-1.0881 2.7612 8.62 150 160 155
-1.07741 2.75799 8.61 150 160 155
-1.06799 2.75799 8.61 150 160 155
-1.05733 2.75479 8.6 151 161 156
-1.04792 2.75479 8.6 151 161 156
-1.0373 2.75159 8.59 140 150 145
-1.0279 2.75159 8.59 143 153 148
-1.01731 2.74838 8.58 146 156 151
-1.00792 2.74838 8.58 159 169 164
-0.998525 2.74838 8.58 168 178 173
-0.989133 2.74838 8.58 152 162 157
-0.979741 2.74838 8.58 150 160 155
-0.97035 2.74838 8.58 152 162 157
-0.960958 2.74838 8.58 153 160 156
-0.951566 2.74838 8.58 153 160 156
-0.942175 2.74838 8.58 152 159 155
-0.932783 2.74838 8.58 149 156 152
-0.924468 2.75159 8.59 148 154 153
-0.915065 2.75159 8.59 146 152 151
-0.905662 2.75159 8.59 147 153 152
-0.897303 2.75479 8.6 152 158 157
-0.88789 2.75479 8.6 148 153 149
-0.879498 2.75799 8.61 142 147 143
-0.871083 2.7612 8.62 142 147 143
-0.861648 2.7612 8.62 146 151 147
-0.853201 2.7644 8.63 152 158 151
-0.844733 2.7676 8.64 150 156 149
-0.835275 2.7676 8.64 148 156 149
-0.826774 2.77081 8.65 147 155 148
-0.817305 2.77081 8.65 147 154 150
-0.808771 2.77401 8.66 149 156 152
-0.800215 2.77721 8.67 148 155 151
-0.791637 2.78042 8.68 149 156 152
-0.783036 2.78362 8.69 148 155 151
-0.774415 2.78682 8.7 150 157 153
-0.765771 2.79003 8.71 148 155 151
-0.756237 2.79003 8.71 155 162 158
-0.748417 2.79643 8.73 156 163 159
-0.739708 2.79964 8.74 148 155 151
-0.730141 2.79964 8.74 159 166 162
-0.721399 2.80284 8.75 159 166 162
-0.711007 2.79964 8.74 161 168 164
-0.700638 2.79643 8.73 145 152 148
-0.690291 2.79323 8.72 148 154 153
-0.679965 2.79003 8.71 150 156 155
-0.670431 2.79003 8.71 153 159 159
-0.660138 2.78682 8.7 149 155 155
-0.64912 2.78042 8.68 159 165 165
-0.638882 2.77721 8.67 157 163 163
-0.628665 2.77401 8.66 150 156 156
-0.618471 2.77081 8.65 152 158 158
-0.608299 2.7676 8.64 152 156 156
-0.598148 2.7644 8.63 144 148 148
-0.58802 2.7612 8.62 150 154 153
-0.577913 2.75799 8.61 148 152 151
-0.567828 2.75479 8.6 151 155 154
-0.558415 2.75479 8.6 151 155 154
-0.549001 2.75479 8.6 155 155 155
-0.540215 2.75799 8.61 158 158 158
-0.530791 2.75799 8.61 160 161 158
-0.521972 2.7612 8.62 161 162 159
-0.513131 2.7644 8.63 164 165 162
-0.504268 2.7676 8.64 157 158 155
-0.494811 2.7676 8.64 157 158 155
-0.485915 2.77081 8.65 155 156 153
-0.476998 2.77401 8.66 156 155 152
-0.467518 2.77401 8.66 156 155 152
-0.458568 2.77721 8.67 160 161 158
-0.449078 2.77721 8.67 159 160 157
-0.439588 2.77721 8.67 156 161 157
-0.430594 2.78042 8.68 146 151 147
-0.421092 2.78042 8.68 148 154 153
-0.411591 2.78042 8.68 154 160 159
-0.402553 2.78362 8.69 154 160 159
-0.393041 2.78362 8.69 153 159 158
-0.383971 2.78682 8.7 155 161 160
-0.374448 2.78682 8.7 154 160 159
-0.364925 2.78682 8.7 154 160 159
-0.355402 2.78682 8.7 153 159 158
-0.345879 2.78682 8.7 149 155 154
-0.336356 2.78682 8.7 146 152 151
-0.326833 2.78682 8.7 162 166 165
-0.317309 2.78682 8.7 151 155 154
-0.307786 2.78682 8.7 147 153 152
-0.298606 2.79003 8.71 149 155 154
-0.289072 2.79003 8.71 152 158 157
-0.279538 2.79003 8.71 153 159 158
-0.270004 2.79003 8.71 159 165 164
-0.260769 2.79323 8.72 150 156 155
-0.251225 2.79323 8.72 150 156 155
-0.24168 2.79323 8.72 148 154 153
-0.232135 2.79323 8.72 150 156 155
-0.222845 2.79643 8.73 146 152 151
-0.213289 2.79643 8.73 149 155 154
-0.203733 2.79643 8.73 149 155 154
-0.1944 2.79964 8.74 147 153 153
-0.184833 2.79964 8.74 146 152 152
-0.175066 2.79643 8.73 148 154 154
-0.16551 2.79643 8.73 149 155 155
-0.155954 2.79643 8.73 147 153 153
-0.146398 2.79643 8.73 142 148 148
-0.136842 2.79643 8.73 138 144 144
-0.127286 2.79643 8.73 142 148 148
-0.117731 2.79643 8.73 154 160 159
-0.108175 2.79643 8.73 137 143 142
-0.0986189 2.79643 8.73 149 156 152
-0.089063 2.79643 8.73 147 154 150
-0.0795072 2.79643 8.73 132 137 133
-0.0700314 2.79964 8.74 143 148 144
-0.0604646 2.79964 8.74 149 155 148
-0.0509561 2.80284 8.75 143 149 142
-0.0414256 2.80604 8.76 144 152 145
-0.0318369 2.80604 8.76 150 158 151
-0.0222736 2.80925 8.77 137 145 138
-0.0126739 2.80925 8.77 139 147 140
-0.00307781 2.81245 8.78 141 148 144
0.00654023 2.81565 8.79 144 151 147
0.0161801 2.81886 8.8 157 167 162
0.0258126 2.81886 8.8 148 158 153
0.0354854 2.82206 8.81 146 158 153
0.04518 2.82526 8.82 127 139 134
0.0548966 2.82847 8.83 137 149 144
0.064635 2.83167 8.84 114 126 121
0.0743954 2.83487 8.85 119 129 124
0.0840826 2.83487 8.85 101 111 106
0.0938757 2.83808 8.86 106 111 107
0.103691 2.84128 8.87 113 118 114
0.113528 2.84448 8.88 112 113 110
0.123387 2.84769 8.89 114 115 112
0.133267 2.85089 8.9 99 104 100
0.143009 2.85089 8.9 106 111 107
0.152923 2.85409 8.91 106 112 111
0.162858 2.8573 8.92 100 106 105
0.172816 2.8605 8.93 109 115 114
0.182795 2.8637 8.94 110 116 115
0.192796 2.8669 8.95 110 116 115
0.202819 2.87011 8.96 110 116 115
0.212864 2.87331 8.97 110 116 115
0.222931 2.87651 8.98 104 110 109
0.23302 2.87972 8.99 104 113 111
0.2434 2.88612 9.01 110 119 117
0.253544 2.88933 9.02 101 112 110
0.263709 2.89253 9.03 101 112 110
0.273896 2.89573 9.04 99 110 108
0.283791 2.89573 9.04 100 111 109
0.294012 2.89894 9.05 100 111 109
0.303918 2.89894 9.05 101 112 110
0.314171 2.90214 9.06 103 112 110
0.324445 2.90534 9.07 101 110 108
0.334373 2.90534 9.07 101 111 106
0.344301 2.90534 9.07 101 111 106
0.35462 2.90855 9.08 101 111 106
0.36496 2.91175 9.09 100 110 105
0.37491 2.91175 9.09 105 112 108
0.385707 2.91816 9.11 105 112 108
0.396113 2.92136 9.12 103 110 106
0.406096 2.92136 9.12 102 109 105
0.416991 2.92777 9.14 101 110 108
0.427463 2.93097 9.15 102 111 109
0.437957 2.93417 9.16 103 112 110
0.448472 2.93738 9.17 102 111 109
0.45901 2.94058 9.18 101 110 108
0.469058 2.94058 9.18 98 107 105
0.479629 2.94378 9.19 98 107 105
0.490221 2.94699 9.2 101 110 108
0.500291 2.94699 9.2 101 111 106
0.510916 2.95019 9.21 95 105 100
0.520997 2.95019 9.21 98 108 103
0.531655 2.95339 9.22 101 111 106
0.542335 2.9566 9.23 107 117 112
0.553037 2.9598 9.24 98 108 103
0.56376 2.963 9.25 93 99 98
0.574506 2.96621 9.26 93 99 98
0.585273 2.96941 9.27 77 77 78
-1.5902 2.87671 8.95 107 111 100
-1.58393 2.88314 8.97 117 121 110
-1.57587 2.88635 8.98 115 122 113
-1.56953 2.89278 9 112 119 110
-1.56314 2.89921 9.02 111 118 114
-1.55499 2.90242 9.03 119 126 122
-1.54511 2.90242 9.03 112 119 115
-1.53522 2.90242 9.03 112 119 115
-1.52534 2.90242 9.03 113 120 116
-1.51545 2.90242 9.03 113 120 116
-1.5039 2.89921 9.02 111 118 114
-1.49403 2.89921 9.02 100 107 103
-1.48087 2.89278 9 110 117 113
-1.46938 2.88956 8.99 118 125 121
-1.45792 2.88635 8.98 115 120 116
-1.44647 2.88314 8.97 115 120 116
-1.43345 2.87671 8.95 114 119 115
-1.42206 2.87349 8.94 116 121 117
-1.4107 2.87028 8.93 116 121 117
-1.39936 2.86707 8.92 114 119 115
-1.38648 2.86064 8.9 115 119 118
-1.37519 2.85742 8.89 115 119 118
-1.36392 2.85421 8.88 113 119 118
-1.35267 2.85099 8.87 117 123 122
-1.33994 2.84457 8.85 115 125 120
-1.32875 2.84135 8.84 121 131 126
-1.31758 2.83814 8.83 116 127 119
-1.30495 2.83171 8.81 136 147 139
-1.29384 2.8285 8.8 120 128 121
-1.28129 2.82207 8.78 124 132 125
-1.27023 2.81885 8.77 145 154 145
-1.25919 2.81564 8.76 149 158 149
-1.24818 2.81242 8.75 141 150 141
-1.23718 2.80921 8.74 154 163 154
-1.22621 2.806 8.73 146 158 148
-1.21526 2.80278 8.72 146 158 148
-1.20433 2.79957 8.71 146 157 149
-1.1948 2.79957 8.71 147 158 150
-1.1839 2.79635 8.7 146 157 149
-1.17303 2.79314 8.69 147 158 150
-1.16218 2.78992 8.68 147 157 152
-1.15135 2.78671 8.67 148 158 153
-1.14054 2.7835 8.66 147 156 154
-1.12976 2.78028 8.65 146 155 153
-1.119 2.77707 8.64 144 153 151
-1.10954 2.77707 8.64 146 155 153
-1.09881 2.77385 8.63 147 156 154
-1.0881 2.77064 8.62 146 155 153
-1.07741 2.76743 8.61 148 157 155
-1.06675 2.76421 8.6 148 157 155
-1.0561 2.761 8.59 150 160 155
-1.04548 2.75778 8.58 150 160 155
-1.03609 2.75778 8.58 151 161 156
-1.0255 2.75457 8.57 151 161 156
-1.01612 2.75457 8.57 145 155 150
-1.00557 2.75135 8.56 152 162 157
-0.996197 2.75135 8.56 148 158 153
-0.986827 2.75135 8.56 150 160 155
-0.977458 2.75135 8.56 147 157 152
-0.968088 2.75135 8.56 151 161 156
-0.958718 2.75135 8.56 152 162 157
-0.949348 2.75135 8.56 151 161 156
-0.941077 2.75457 8.57 150 160 155
-0.931696 2.75457 8.57 146 156 151
-0.922315 2.75457 8.57 147 153 152
-0.914 2.75778 8.58 147 153 152
-0.904608 2.75778 8.58 146 152 151
-0.895216 2.75778 8.58 152 158 157
-0.885825 2.75778 8.58 149 154 150
-0.877455 2.761 8.59 148 153 149
-0.869062 2.76421 8.6 144 149 145
-0.860649 2.76743 8.61 147 152 148
-0.851224 2.76743 8.61 152 157 153
-0.842777 2.77064 8.62 149 154 150
-0.834308 2.77385 8.63 145 152 148
-0.824862 2.77385 8.63 147 154 150
-0.816361 2.77707 8.64 147 154 150
-0.806903 2.77707 8.64 149 156 152
-0.797446 2.77707 8.64 150 157 153
-0.788901 2.78028 8.65 153 160 156
-0.780333 2.7835 8.66 157 164 160
-0.770854 2.7835 8.66 142 149 145
-0.762254 2.78671 8.67 148 158 153
-0.753632 2.78992 8.68 154 164 159
-0.744988 2.79314 8.69 152 162 157
-0.735476 2.79314 8.69 147 157 152
-0.726799 2.79635 8.7 148 158 153
-0.717276 2.79635 8.7 140 150 145
-0.707753 2.79635 8.7 150 157 153
-0.697428 2.79314 8.69 147 154 150
-0.687916 2.79314 8.69 149 155 154
-0.678404 2.79314 8.69 153 159 158
-0.668892 2.79314 8.69 154 160 160
-0.658621 2.78992 8.68 149 155 155
-0.648372 2.78671 8.67 149 155 155
-0.638145 2.7835 8.66 149 155 155
-0.627214 2.77707 8.64 150 156 156
-0.617756 2.77707 8.64 152 158 158
-0.607595 2.77385 8.63 155 159 159
-0.596762 2.76743 8.61 152 156 156
-0.586656 2.76421 8.6 152 157 153
-0.576571 2.761 8.59 156 161 157
-0.566508 2.75778 8.58 160 161 158
-0.557116 2.75778 8.58 158 159 156
-0.547725 2.75778 8.58 158 159 156
-0.53896 2.761 8.59 151 152 149
-0.529558 2.761 8.59 157 158 155
-0.520761 2.76421 8.6 165 166 163
-0.511942 2.76743 8.61 174 176 170
-0.503101 2.77064 8.62 153 155 149
-0.493665 2.77064 8.62 157 157 151
-0.484792 2.77385 8.63 156 156 150
-0.475896 2.77707 8.64 156 156 150
-0.466439 2.77707 8.64 157 157 151
-0.45751 2.78028 8.65 157 159 153
-0.44856 2.7835 8.66 157 159 153
-0.439081 2.7835 8.66 156 162 155
-0.429601 2.7835 8.66 151 157 150
-0.420607 2.78671 8.67 149 157 150
-0.411117 2.78671 8.67 152 160 153
-0.40209 2.78992 8.68 152 159 155
-0.392589 2.78992 8.68 157 164 160
-0.383088 2.78992 8.68 154 161 157
-0.373587 2.78992 8.68 160 167 163
-0.364086 2.78992 8.68 156 163 159
-0.354585 2.78992 8.68 153 160 156
-0.345083 2.78992 8.68 153 160 156
-0.335582 2.78992 8.68 149 156 152
-0.326081 2.78992 8.68 167 174 170
-0.316945 2.79314 8.69 153 160 156
-0.307433 2.79314 8.69 148 155 151
-0.297921 2.79314 8.69 153 160 156
-0.288409 2.79314 8.69 154 161 157
-0.278896 2.79314 8.69 153 160 156
-0.269384 2.79314 8.69 161 168 164
-0.260171 2.79635 8.7 149 156 152
-0.250648 2.79635 8.7 141 148 144
-0.241125 2.79635 8.7 148 155 151
-0.231602 2.79635 8.7 149 155 154
-0.222335 2.79957 8.71 146 152 151
-0.212801 2.79957 8.71 147 153 152
-0.203267 2.79957 8.71 149 155 154
-0.193733 2.79957 8.71 149 155 154
-0.184199 2.79957 8.71 141 147 146
-0.174665 2.79957 8.71 149 155 155
-0.165131 2.79957 8.71 149 155 155
-0.155418 2.79635 8.7 147 153 153
-0.145895 2.79635 8.7 146 152 152
-0.136372 2.79635 8.7 152 158 157
-0.126995 2.79957 8.71 161 167 166
-0.117326 2.79635 8.7 166 172 171
-0.107803 2.79635 8.7 144 150 149
-0.09828 2.79635 8.7 137 144 140
-0.088859 2.79957 8.71 142 149 145
-0.079325 2.79957 8.71 134 141 137
-0.069791 2.79957 8.71 145 152 148
-0.0603263 2.80278 8.72 157 165 158
-0.0508396 2.806 8.73 145 153 146
-0.0412837 2.806 8.73 142 150 143
-0.0317642 2.80921 8.74 144 152 145
-0.0222228 2.81242 8.75 147 154 150
-0.012645 2.81242 8.75 146 153 149
-0.00307079 2.81564 8.76 143 152 150
0.00652534 2.81885 8.77 139 148 146
0.0161434 2.82207 8.78 132 141 139
0.0257833 2.82528 8.79 135 144 142
0.0354451 2.8285 8.8 129 138 136
0.0450776 2.8285 8.8 109 118 116
0.0548344 2.83492 8.82 109 118 116
0.0645619 2.83814 8.83 107 116 114
0.0742272 2.83814 8.83 101 111 106
0.0839876 2.84135 8.84 100 110 105
0.0937698 2.84457 8.85 107 114 110
0.103574 2.84778 8.86 109 116 112
0.1134 2.85099 8.87 113 118 114
0.123248 2.85421 8.88 115 120 116
0.133118 2.85742 8.89 105 112 108
0.142849 2.85742 8.89 105 112 108
0.152751 2.86064 8.9 107 114 110
0.162676 2.86385 8.91 111 118 114
0.172622 2.86707 8.92 109 115 114
0.18259 2.87028 8.93 107 113 112
0.192581 2.87349 8.94 106 112 111
0.202593 2.87671 8.95 111 117 116
0.212627 2.87992 8.96 111 117 116
0.222931 2.88635 8.98 96 102 101
0.233279 2.89278 9 105 114 112
0.2434 2.89599 9.01 107 116 114
0.253544 2.89921 9.02 103 114 112
0.263709 2.90242 9.03 100 111 109
0.273896 2.90564 9.04 99 110 108
0.284105 2.90885 9.05 100 111 109
0.294012 2.90885 9.05 94 103 101
0.304253 2.91206 9.06 115 124 122
0.314171 2.91206 9.06 105 114 112
0.324088 2.91206 9.06 102 111 109
0.334373 2.91528 9.07 105 112 108
0.344301 2.91528 9.07 106 113 109
0.35462 2.91849 9.08 103 110 106
0.36496 2.92171 9.09 104 111 107
0.375323 2.92492 9.1 109 116 112
0.385707 2.92814 9.11 106 113 109
0.396113 2.93135 9.12 105 112 108
0.406541 2.93456 9.13 105 112 108
0.416991 2.93778 9.14 100 110 105
0.427463 2.94099 9.15 103 113 108
0.437957 2.94421 9.16 103 113 108
0.448472 2.94742 9.17 98 108 103
0.45851 2.94742 9.17 95 105 100
0.469058 2.95063 9.18 97 107 102
0.479629 2.95385 9.19 97 107 102
0.489688 2.95385 9.19 98 108 103
0.500291 2.95706 9.2 87 97 92
0.510361 2.95706 9.2 90 100 95
0.520997 2.96028 9.21 102 112 107
0.531079 2.96028 9.21 105 115 110
0.54116 2.96028 9.21 109 114 110
0.552438 2.96671 9.23 70 75 71
0.562541 2.96671 9.23 58 59 56
-1.5804 2.88651 8.95 111 111 100
-1.57236 2.88974 8.96 114 118 107
-1.56604 2.89619 8.98 114 118 107
-1.55968 2.90264 9 113 121 114
-1.55155 2.90586 9.01 112 120 113
-1.5434 2.90909 9.02 110 117 113
-1.53352 2.90909 9.02 112 119 115
-1.52365 2.90909 9.02 112 119 115
-1.51378 2.90909 9.02 112 119 115
-1.5039 2.90909 9.02 112 119 115
-1.49237 2.90586 9.01 113 120 116
-1.48087 2.90264 9 114 121 117
-1.46938 2.89941 8.99 121 128 124
-1.45792 2.89619 8.98 115 120 116
-1.44647 2.89296 8.97 114 119 115
-1.43345 2.88651 8.95 114 119 115
-1.42206 2.88329 8.94 119 124 120
-1.4107 2.88006 8.93 114 119 115
-1.39936 2.87684 8.92 114 119 115
-1.38803 2.87361 8.91 105 110 106
-1.37519 2.86716 8.89 106 111 107
-1.36546 2.86716 8.89 119 123 122
-1.35267 2.86071 8.87 120 124 123
-1.33994 2.85426 8.85 119 123 122
-1.32875 2.85103 8.84 120 124 123
-1.31758 2.84781 8.83 110 117 113
-1.30495 2.84136 8.81 126 133 129
-1.29384 2.83813 8.8 120 128 121
-1.28129 2.83168 8.78 123 131 124
-1.26878 2.82523 8.76 127 134 125
-1.25775 2.82201 8.75 125 132 123
-1.24675 2.81878 8.74 148 155 146
-1.23577 2.81556 8.73 148 155 146
-1.22481 2.81233 8.72 142 151 142
-1.21526 2.81233 8.72 152 161 152
-1.20433 2.80911 8.71 152 163 155
-1.19343 2.80588 8.7 151 162 154
-1.1839 2.80588 8.7 146 157 149
-1.17303 2.80266 8.69 148 159 151
-1.16218 2.79943 8.68 152 162 157
-1.15135 2.79621 8.67 152 162 157
-1.14054 2.79298 8.66 148 157 155
-1.12976 2.78976 8.65 146 155 153
-1.119 2.78653 8.64 146 155 153
-1.10825 2.78331 8.63 148 157 155
-1.09753 2.78008 8.62 145 154 152
-1.08684 2.77686 8.61 146 155 153
-1.07616 2.77363 8.6 150 159 157
-1.06551 2.77041 8.59 150 159 157
-1.05487 2.76718 8.58 148 157 155
-1.04548 2.76718 8.58 147 156 154
-1.03488 2.76396 8.57 147 156 154
-1.02431 2.76073 8.56 150 159 157
-1.01375 2.75751 8.55 146 155 153
-1.00439 2.75751 8.55 150 159 157
-0.99387 2.75428 8.54 148 157 155
-0.984522 2.75428 8.54 148 157 155
-0.975174 2.75428 8.54 147 156 154
-0.965826 2.75428 8.54 148 157 155
-0.955358 2.75106 8.53 148 157 155
-0.94713 2.75428 8.54 148 157 155
-0.937782 2.75428 8.54 148 157 155
-0.928434 2.75428 8.54 147 156 154
-0.920163 2.75751 8.55 148 154 153
-0.910804 2.75751 8.55 147 153 152
-0.902499 2.76073 8.56 146 152 151
-0.89313 2.76073 8.56 150 156 155
-0.884792 2.76396 8.57 149 154 150
-0.875412 2.76396 8.57 159 164 160
-0.867041 2.76718 8.58 158 163 159
-0.858649 2.77041 8.59 152 157 153
-0.849247 2.77041 8.59 150 155 151
-0.840822 2.77363 8.6 151 156 152
-0.832375 2.77686 8.61 154 159 155
-0.82295 2.77686 8.61 154 159 155
-0.814471 2.78008 8.62 150 157 153
-0.805035 2.78008 8.62 150 157 153
-0.7956 2.78008 8.62 152 159 155
-0.787076 2.78331 8.63 155 162 158
-0.77763 2.78331 8.63 164 171 167
-0.768184 2.78331 8.63 157 164 160
-0.759616 2.78653 8.64 153 163 158
-0.750159 2.78653 8.64 153 163 158
-0.740702 2.78653 8.64 153 163 158
-0.732091 2.78976 8.65 135 145 140
-0.722622 2.78976 8.65 145 155 150
-0.713154 2.78976 8.65 144 154 149
-0.704499 2.79298 8.66 149 156 152
-0.69502 2.79298 8.66 150 157 153
-0.685541 2.79298 8.66 150 156 155
-0.676062 2.79298 8.66 153 159 158
-0.666582 2.79298 8.66 153 159 158
-0.657103 2.79298 8.66 153 159 158
-0.646876 2.78976 8.65 154 160 159
-0.636671 2.78653 8.64 154 160 159
-0.626488 2.78331 8.63 155 161 160
-0.616326 2.78008 8.62 154 160 159
-0.606187 2.77686 8.61 155 159 158
-0.596069 2.77363 8.6 152 156 155
-0.585973 2.77041 8.59 152 157 153
-0.5759 2.76718 8.58 156 161 157
-0.566508 2.76718 8.58 156 161 157
-0.556467 2.76396 8.57 154 159 155
-0.547086 2.76396 8.57 143 148 144
-0.537705 2.76396 8.57 149 154 150
-0.528941 2.76718 8.58 155 157 151
-0.520155 2.77041 8.59 158 160 154
-0.510752 2.77041 8.59 162 164 158
-0.501934 2.77363 8.6 159 161 155
-0.493093 2.77686 8.61 157 159 153
-0.48423 2.78008 8.62 157 159 153
-0.475345 2.78331 8.63 159 159 153
-0.465899 2.78331 8.63 157 157 151
-0.456981 2.78653 8.64 155 157 151
-0.447524 2.78653 8.64 155 157 151
-0.438574 2.78976 8.65 158 160 154
-0.429105 2.78976 8.65 158 160 154
-0.419637 2.78976 8.65 152 158 151
-0.410169 2.78976 8.65 152 158 151
-0.401164 2.79298 8.66 154 160 153
-0.391685 2.79298 8.66 158 164 157
-0.382205 2.79298 8.66 135 140 136
-0.372726 2.79298 8.66 154 159 155
-0.363247 2.79298 8.66 163 170 166
-0.353768 2.79298 8.66 149 156 152
-0.344288 2.79298 8.66 152 159 155
-0.334809 2.79298 8.66 150 157 153
-0.325706 2.79621 8.67 155 160 156
-0.316215 2.79621 8.67 154 159 155
-0.306725 2.79621 8.67 150 157 153
-0.297235 2.79621 8.67 157 164 160
-0.287745 2.79621 8.67 152 159 155
-0.278255 2.79621 8.67 150 157 153
-0.268764 2.79621 8.67 150 157 153
-0.259573 2.79943 8.68 155 162 158
-0.250072 2.79943 8.68 147 154 150
-0.240571 2.79943 8.68 147 154 150
-0.23107 2.79943 8.68 152 159 155
-0.221569 2.79943 8.68 154 161 157
-0.212312 2.80266 8.69 149 156 152
-0.202566 2.79943 8.68 148 155 151
-0.193065 2.79943 8.68 157 163 162
-0.183564 2.79943 8.68 157 163 162
-0.174063 2.79943 8.68 150 156 155
-0.164562 2.79943 8.68 147 153 152
-0.155061 2.79943 8.68 148 154 153
-0.14556 2.79943 8.68 148 154 153
-0.136059 2.79943 8.68 140 146 145
-0.126557 2.79943 8.68 139 145 144
-0.117056 2.79943 8.68 150 156 155
-0.107555 2.79943 8.68 141 147 146
-0.0980541 2.79943 8.68 144 151 147
-0.0885529 2.79943 8.68 145 152 148
-0.0791429 2.80266 8.69 148 155 151
-0.0696308 2.80266 8.69 148 155 151
-0.0601879 2.80588 8.7 139 146 142
-0.0507231 2.80911 8.71 148 155 151
-0.0412364 2.81233 8.72 150 157 153
-0.0316915 2.81233 8.72 140 147 143
-0.022172 2.81556 8.73 142 149 145
-0.0126306 2.81878 8.74 153 160 156
-0.00306729 2.82201 8.75 140 146 146
0.0065179 2.82523 8.76 120 126 126
0.016125 2.82846 8.77 102 108 108
0.0257246 2.82846 8.77 107 113 113
0.0353646 2.83168 8.78 108 117 116
0.0450264 2.83491 8.79 98 107 106
0.0547101 2.83813 8.8 105 114 112
0.0644157 2.84136 8.81 111 120 118
0.0741432 2.84458 8.82 111 120 118
0.0838926 2.84781 8.83 105 114 112
0.0936638 2.85103 8.84 107 116 114
0.103457 2.85426 8.85 105 114 112
0.113272 2.85749 8.86 107 114 110
0.123109 2.86071 8.87 106 113 109
0.132968 2.86394 8.88 105 112 108
0.142688 2.86394 8.88 106 113 109
0.15258 2.86716 8.89 106 112 111
0.162493 2.87039 8.9 105 111 110
0.172622 2.87684 8.92 105 111 110
0.18259 2.88006 8.93 93 99 98
0.192581 2.88329 8.94 104 110 109
0.202593 2.88651 8.95 109 115 114
0.212627 2.88974 8.96 109 115 114
0.222931 2.89619 8.98 102 108 107
0.23302 2.89941 8.99 107 116 114
0.2434 2.90586 9.01 104 113 111
0.253544 2.90909 9.02 104 113 111
0.263709 2.91231 9.03 104 113 111
0.273896 2.91554 9.04 105 114 112
0.283791 2.91554 9.04 103 112 110
0.294012 2.91876 9.05 90 99 97
0.303918 2.91876 9.05 116 125 123
0.314171 2.92199 9.06 110 116 115
0.324088 2.92199 9.06 104 110 109
0.334373 2.92521 9.07 105 112 108
0.344301 2.92521 9.07 107 114 110
0.35462 2.92844 9.08 106 113 109
0.36496 2.93166 9.09 105 112 108
0.375323 2.93489 9.1 109 116 112
0.385707 2.93811 9.11 109 116 112
0.396113 2.94134 9.12 106 113 109
0.406541 2.94456 9.13 104 111 107
0.416991 2.94779 9.14 103 110 106
0.427463 2.95101 9.15 105 112 108
0.437957 2.95424 9.16 109 116 112
0.448472 2.95746 9.17 107 114 110
0.45851 2.95746 9.17 96 103 99
0.469058 2.96069 9.18 105 112 108
0.479107 2.96069 9.18 106 113 109
0.489688 2.96392 9.19 109 116 112
0.499747 2.96392 9.19 100 105 101
0.510361 2.96714 9.2 98 103 99
0.520432 2.96714 9.2 87 88 85
0.530502 2.96714 9.2 62 63 60
-1.56081 2.89632 8.95 106 109 94
-1.55448 2.90279 8.97 112 120 108
-1.5481 2.90926 8.99 114 122 110
-1.53997 2.9125 9 109 117 110
-1.53182 2.91573 9.01 111 119 112
-1.52196 2.91573 9.01 112 120 113
-1.5121 2.91573 9.01 111 119 112
-1.50057 2.9125 9 110 118 111
-1.49072 2.9125 9 112 120 113
-1.47922 2.90926 8.99 110 118 111
-1.46775 2.90602 8.98 100 108 101
-1.45629 2.90279 8.97 107 113 106
-1.44486 2.89955 8.96 112 118 111
-1.43345 2.89632 8.95 112 117 113
-1.42206 2.89308 8.94 122 127 123
-1.4107 2.88984 8.93 114 119 115
-1.39936 2.88661 8.92 127 132 128
-1.38803 2.88337 8.91 114 119 115
-1.37673 2.88013 8.9 121 126 122
-1.36546 2.8769 8.89 120 125 121
-1.35267 2.87043 8.87 120 125 121
-1.34145 2.86719 8.86 120 125 121
-1.32875 2.86072 8.84 120 125 121
-1.31758 2.85748 8.83 113 120 116
-1.30643 2.85425 8.82 104 111 107
-1.29384 2.84777 8.8 115 121 114
-1.28129 2.8413 8.78 125 131 124
-1.26878 2.83483 8.76 119 125 118
-1.25775 2.83159 8.75 108 114 107
-1.24675 2.82836 8.74 139 142 134
-1.23577 2.82512 8.73 142 145 137
-1.22481 2.82188 8.72 151 154 146
-1.21387 2.81865 8.71 145 148 140
-1.20433 2.81865 8.71 150 159 150
-1.19343 2.81541 8.7 153 162 153
-1.18254 2.81218 8.69 145 156 148
-1.17168 2.80894 8.68 148 159 151
-1.16084 2.8057 8.67 153 163 158
-1.15002 2.80247 8.66 152 162 157
-1.13923 2.79923 8.65 147 157 152
-1.12845 2.796 8.64 146 156 151
-1.119 2.796 8.64 147 156 154
-1.10825 2.79276 8.63 160 169 167
-1.09753 2.78952 8.62 138 147 145
-1.08684 2.78629 8.61 147 156 154
-1.07616 2.78305 8.6 150 159 157
-1.06551 2.77982 8.59 148 157 155
-1.05487 2.77658 8.58 147 156 154
-1.04426 2.77334 8.57 146 155 153
-1.03368 2.77011 8.56 146 155 153
-1.02311 2.76687 8.55 146 155 153
-1.01257 2.76363 8.54 147 156 154
-1.00204 2.7604 8.53 148 157 155
-0.992706 2.7604 8.53 151 160 158
-0.983369 2.7604 8.53 152 161 159
-0.97289 2.75716 8.52 148 157 155
-0.963564 2.75716 8.52 150 159 157
-0.954238 2.75716 8.52 147 156 154
-0.944912 2.75716 8.52 146 155 153
-0.936684 2.7604 8.53 148 157 155
-0.927347 2.7604 8.53 133 142 140
-0.91801 2.7604 8.53 137 143 143
-0.908673 2.7604 8.53 146 152 152
-0.899336 2.7604 8.53 146 150 149
-0.891043 2.76363 8.54 147 151 150
-0.881695 2.76363 8.54 147 152 148
-0.873369 2.76687 8.55 149 154 150
-0.86502 2.77011 8.56 153 155 149
-0.85665 2.77334 8.57 152 154 148
-0.848258 2.77658 8.58 150 156 149
-0.838866 2.77658 8.58 155 161 154
-0.829475 2.77658 8.58 154 160 153
-0.821039 2.77982 8.59 151 157 150
-0.811636 2.77982 8.59 151 156 152
-0.803168 2.78305 8.6 150 155 151
-0.792831 2.77982 8.59 155 160 156
-0.78434 2.78305 8.6 154 159 155
-0.774927 2.78305 8.6 150 157 153
-0.765513 2.78305 8.6 142 149 145
-0.7561 2.78305 8.6 144 151 147
-0.747554 2.78629 8.61 154 161 157
-0.73813 2.78629 8.61 152 162 157
-0.728705 2.78629 8.61 148 158 153
-0.720116 2.78952 8.62 150 160 155
-0.710681 2.78952 8.62 150 160 155
-0.701245 2.78952 8.62 150 160 155
-0.69181 2.78952 8.62 151 161 156
-0.683166 2.79276 8.63 153 160 156
-0.6745 2.796 8.64 153 160 156
-0.665043 2.796 8.64 153 159 158
-0.655586 2.796 8.64 152 158 157
-0.64538 2.79276 8.63 154 160 159
-0.635197 2.78952 8.62 149 155 154
-0.625762 2.78952 8.62 156 162 161
-0.615611 2.78629 8.61 152 158 157
-0.604779 2.77982 8.59 150 156 155
-0.594683 2.77658 8.58 155 161 160
-0.584609 2.77334 8.57 155 162 158
-0.575228 2.77334 8.57 154 161 157
-0.565187 2.77011 8.56 153 161 154
-0.555818 2.77011 8.56 152 160 153
-0.546448 2.77011 8.56 146 152 145
-0.537078 2.77011 8.56 156 162 155
-0.528325 2.77334 8.57 154 160 153
-0.518944 2.77334 8.57 154 160 153
-0.510158 2.77658 8.58 155 161 154
-0.50135 2.77982 8.59 155 161 154
-0.49252 2.78305 8.6 150 155 151
-0.483106 2.78305 8.6 151 156 152
-0.474244 2.78629 8.61 154 159 155
-0.465359 2.78952 8.62 155 160 156
-0.455924 2.78952 8.62 155 160 156
-0.447006 2.79276 8.63 154 159 155
-0.43756 2.79276 8.63 152 158 151
-0.428113 2.79276 8.63 152 158 151
-0.419152 2.796 8.64 152 158 151
-0.409695 2.796 8.64 152 158 151
-0.400237 2.796 8.64 152 158 151
-0.39078 2.796 8.64 154 160 153
-0.381323 2.796 8.64 149 154 150
-0.372296 2.79923 8.65 148 153 149
-0.362827 2.79923 8.65 168 173 169
-0.353359 2.79923 8.65 148 153 149
-0.343891 2.79923 8.65 143 148 144
-0.334422 2.79923 8.65 152 157 153
-0.324954 2.79923 8.65 152 157 153
-0.315486 2.79923 8.65 150 155 151
-0.306018 2.79923 8.65 151 156 152
-0.296549 2.79923 8.65 150 155 151
-0.287081 2.79923 8.65 151 156 152
-0.277613 2.79923 8.65 151 156 152
-0.268144 2.79923 8.65 139 144 140
-0.258975 2.80247 8.66 142 147 143
-0.249496 2.80247 8.66 148 155 151
-0.240017 2.80247 8.66 147 154 150
-0.230537 2.80247 8.66 153 160 156
-0.221058 2.80247 8.66 161 168 164
-0.211823 2.8057 8.67 146 156 151
-0.2021 2.80247 8.66 145 155 150
-0.192621 2.80247 8.66 147 157 152
-0.183141 2.80247 8.66 146 156 151
-0.173662 2.80247 8.66 145 155 150
-0.164183 2.80247 8.66 144 154 149
-0.154704 2.80247 8.66 151 161 156
-0.145224 2.80247 8.66 145 155 150
-0.135745 2.80247 8.66 148 158 153
-0.126266 2.80247 8.66 142 152 147
-0.116787 2.80247 8.66 143 153 148
-0.107307 2.80247 8.66 143 153 148
-0.0979411 2.8057 8.67 142 149 145
-0.0884509 2.8057 8.67 139 146 142
-0.0789607 2.8057 8.67 152 159 155
-0.0695507 2.80894 8.68 150 157 153
-0.0601187 2.81218 8.69 138 148 143
-0.0506649 2.81541 8.7 152 162 157
-0.0411419 2.81541 8.7 136 146 141
-0.0316552 2.81865 8.71 133 143 138
-0.0221212 2.81865 8.71 123 132 131
-0.0126017 2.82188 8.72 119 128 127
-0.00306028 2.82512 8.73 118 127 126
0.00650302 2.82836 8.74 107 116 115
0.0160882 2.83159 8.75 108 116 118
0.0256953 2.83483 8.76 109 117 119
0.0353243 2.83807 8.77 110 115 118
0.0449751 2.8413 8.78 110 115 118
0.0546479 2.84454 8.79 105 114 113
0.0643426 2.84777 8.8 105 114 113
0.0740591 2.85101 8.81 104 113 112
0.0837975 2.85425 8.82 103 112 111
0.0935579 2.85748 8.83 103 112 110
0.10334 2.86072 8.84 105 114 112
0.113144 2.86395 8.85 107 116 114
0.12297 2.86719 8.86 103 112 110
0.132818 2.87043 8.87 103 112 110
0.142688 2.87366 8.88 105 114 112
0.15258 2.8769 8.89 107 116 114
0.162493 2.88013 8.9 107 116 114
0.172429 2.88337 8.91 102 111 109
0.182386 2.88661 8.92 102 111 109
0.192365 2.88984 8.93 117 126 124
0.202593 2.89632 8.95 105 114 112
0.212627 2.89955 8.96 107 116 114
0.222683 2.90279 8.97 103 112 110
0.23302 2.90926 8.99 104 113 111
0.2434 2.91573 9.01 102 111 109
0.253544 2.91897 9.02 103 112 110
0.263709 2.9222 9.03 103 112 110
0.273896 2.92544 9.04 103 112 110
0.283791 2.92544 9.04 101 110 108
0.294012 2.92868 9.05 87 96 94
0.303918 2.92868 9.05 89 98 96
0.314171 2.93191 9.06 91 97 96
0.324088 2.93191 9.06 103 109 108
0.334373 2.93515 9.07 105 112 108
0.344301 2.93515 9.07 107 114 110
0.35462 2.93838 9.08 107 114 110
0.36496 2.94162 9.09 103 110 106
0.375323 2.94486 9.1 111 118 114
0.385707 2.94809 9.11 110 117 113
0.396547 2.95457 9.13 107 114 110
0.406987 2.9578 9.14 105 112 108
0.417447 2.96104 9.15 102 109 105
0.427463 2.96104 9.15 106 113 109
0.437957 2.96427 9.16 103 110 106
0.448472 2.96751 9.17 100 107 103
0.45851 2.96751 9.17 100 108 101
0.468547 2.96751 9.17 116 124 117
0.479107 2.97075 9.18 121 126 122
0.489155 2.97075 9.18 98 103 99
0.499204 2.97075 9.18 74 79 75
-1.54294 2.90937 8.96 124 129 116
-1.53484 2.91261 8.97 112 122 110
-1.52672 2.91586 8.98 109 119 107
-1.51858 2.91911 8.99 111 119 112
-1.50874 2.91911 8.99 109 117 110
-1.4989 2.91911 8.99 107 115 108
-1.4874 2.91586 8.98 109 117 110
-1.47757 2.91586 8.98 107 115 108
-1.46611 2.91261 8.97 107 115 108
-1.45467 2.90937 8.96 111 117 110
-1.44325 2.90612 8.95 111 117 110
-1.43185 2.90287 8.94 110 112 106
-1.42206 2.90287 8.94 125 127 121
-1.4107 2.89962 8.93 119 121 115
-1.39936 2.89638 8.92 123 125 119
-1.38803 2.89313 8.91 130 132 126
-1.37673 2.88988 8.9 126 128 122
-1.36546 2.88664 8.89 114 120 113
-1.3542 2.88339 8.88 119 125 118
-1.34145 2.8769 8.86 120 125 121
-1.33025 2.87365 8.85 118 123 119
-1.31758 2.86715 8.83 116 121 117
-1.30495 2.86066 8.81 114 119 115
-1.29384 2.85741 8.8 114 119 115
-1.28129 2.85092 8.78 112 117 113
-1.26878 2.84442 8.76 113 119 112
-1.25632 2.83793 8.74 118 124 117
-1.24532 2.83468 8.73 123 126 118
-1.23435 2.83144 8.72 116 119 111
-1.2234 2.82819 8.71 132 133 125
-1.21387 2.82819 8.71 157 158 150
-1.20295 2.82494 8.7 147 156 147
-1.19206 2.8217 8.69 144 153 144
-1.18254 2.8217 8.69 146 157 149
-1.17168 2.81845 8.68 147 158 150
-1.16084 2.8152 8.67 158 169 161
-1.15002 2.81195 8.66 155 166 158
-1.13923 2.80871 8.65 144 154 149
-1.12845 2.80546 8.64 148 158 153
-1.119 2.80546 8.64 152 161 159
-1.10825 2.80221 8.63 158 167 165
-1.09753 2.79897 8.62 139 148 146
-1.08684 2.79572 8.61 145 154 152
-1.07616 2.79247 8.6 150 159 158
-1.06551 2.78922 8.59 148 157 156
-1.05487 2.78598 8.58 150 159 158
-1.04426 2.78273 8.57 146 155 154
-1.03368 2.77948 8.56 148 157 156
-1.02191 2.77299 8.54 151 160 159
-1.01138 2.76974 8.53 151 160 159
-1.00087 2.76649 8.52 150 159 158
-0.990378 2.76325 8.51 148 157 156
-0.981063 2.76325 8.51 150 159 158
-0.970606 2.76 8.5 147 156 155
-0.961302 2.76 8.5 152 161 160
-0.951998 2.76 8.5 153 162 161
-0.942694 2.76 8.5 150 159 158
-0.934488 2.76325 8.51 147 156 155
-0.925173 2.76325 8.51 143 152 151
-0.915858 2.76325 8.51 141 147 147
-0.906543 2.76325 8.51 149 155 155
-0.898282 2.76649 8.52 147 151 151
-0.89 2.76974 8.53 154 158 158
-0.880663 2.76974 8.53 151 155 154
-0.871326 2.76974 8.53 151 155 154
-0.862999 2.77299 8.54 152 157 153
-0.854651 2.77624 8.55 149 154 150
-0.845292 2.77624 8.55 152 157 153
-0.836911 2.77948 8.56 152 157 153
-0.828508 2.78273 8.57 151 156 152
-0.819127 2.78273 8.57 150 155 151
-0.809747 2.78273 8.57 152 157 153
-0.800366 2.78273 8.57 151 156 152
-0.791908 2.78598 8.58 146 151 147
-0.782516 2.78598 8.58 150 155 151
-0.773125 2.78598 8.58 151 156 152
-0.763733 2.78598 8.58 147 152 148
-0.754341 2.78598 8.58 152 159 155
-0.74495 2.78598 8.58 152 159 155
-0.735558 2.78598 8.58 153 160 156
-0.726166 2.78598 8.58 154 161 157
-0.716775 2.78598 8.58 150 160 155
-0.708207 2.78922 8.59 150 160 155
-0.698805 2.78922 8.59 151 161 156
-0.689402 2.78922 8.59 152 162 157
-0.680791 2.79247 8.6 151 161 156
-0.672158 2.79572 8.61 152 162 157
-0.663503 2.79897 8.62 156 162 161
-0.654068 2.79897 8.62 153 159 158
-0.644633 2.79897 8.62 153 159 158
-0.633723 2.79247 8.6 152 158 157
-0.62431 2.79247 8.6 154 160 159
-0.614181 2.78922 8.59 153 159 158
-0.604075 2.78598 8.58 153 160 156
-0.59399 2.78273 8.57 154 161 157
-0.583245 2.77624 8.55 154 161 157
-0.573886 2.77624 8.55 154 161 157
-0.563867 2.77299 8.54 154 162 155
-0.554519 2.77299 8.54 153 161 154
-0.545171 2.77299 8.54 152 160 153
-0.536451 2.77624 8.55 152 160 153
-0.527092 2.77624 8.55 152 160 153
-0.518339 2.77948 8.56 150 158 151
-0.509563 2.78273 8.57 150 157 153
-0.500766 2.78598 8.58 149 156 152
-0.491375 2.78598 8.58 147 154 150
-0.482545 2.78922 8.59 152 159 155
-0.473693 2.79247 8.6 154 158 157
-0.464279 2.79247 8.6 154 158 157
-0.454866 2.79247 8.6 154 158 157
-0.44597 2.79572 8.61 154 158 157
-0.436546 2.79572 8.61 152 157 153
-0.427617 2.79897 8.62 150 155 151
-0.418182 2.79897 8.62 161 166 162
-0.408746 2.79897 8.62 156 161 157
-0.399774 2.80221 8.63 154 159 155
-0.390328 2.80221 8.63 152 157 153
-0.380881 2.80221 8.63 143 148 144
-0.371435 2.80221 8.63 154 159 155
-0.361988 2.80221 8.63 156 161 157
-0.352542 2.80221 8.63 151 156 152
-0.343493 2.80546 8.64 152 157 153
-0.334036 2.80546 8.64 152 157 153
-0.324579 2.80546 8.64 155 156 153
-0.315121 2.80546 8.64 153 154 151
-0.305664 2.80546 8.64 153 154 151
-0.296206 2.80546 8.64 153 154 151
-0.286749 2.80546 8.64 154 155 152
-0.277292 2.80546 8.64 155 156 153
-0.267834 2.80546 8.64 150 155 151
-0.258377 2.80546 8.64 150 155 151
-0.24892 2.80546 8.64 152 157 153
-0.239462 2.80546 8.64 144 149 145
-0.230005 2.80546 8.64 146 153 149
-0.220548 2.80546 8.64 162 169 165
-0.211335 2.80871 8.65 147 154 150
-0.201866 2.80871 8.65 152 159 155
-0.192398 2.80871 8.65 146 156 151
-0.18293 2.80871 8.65 144 154 149
-0.173461 2.80871 8.65 147 157 152
-0.163993 2.80871 8.65 148 158 153
-0.154525 2.80871 8.65 137 147 142
-0.145057 2.80871 8.65 139 149 144
-0.135588 2.80871 8.65 147 157 152
-0.12612 2.80871 8.65 144 154 149
-0.116652 2.80871 8.65 143 153 148
-0.107183 2.80871 8.65 142 152 147
-0.0977152 2.80871 8.65 140 150 145
-0.0883489 2.81195 8.66 140 150 145
-0.0788696 2.81195 8.66 151 161 156
-0.0694705 2.8152 8.67 151 161 156
-0.0600495 2.81845 8.68 125 134 132
-0.0506066 2.8217 8.69 131 140 138
-0.0411419 2.82494 8.7 122 133 132
-0.0316552 2.82819 8.71 110 121 120
-0.0221212 2.82819 8.71 107 117 119
-0.0126017 2.83144 8.72 100 110 112
-0.00306028 2.83468 8.73 103 113 115
0.00650302 2.83793 8.74 108 118 120
0.0160882 2.84118 8.75 110 118 120
0.025666 2.84118 8.75 109 117 119
0.035284 2.84442 8.76 108 116 118
0.0449239 2.84767 8.77 109 117 119
0.0545857 2.85092 8.78 107 115 117
0.0642694 2.85417 8.79 107 115 117
0.073975 2.85741 8.8 105 114 113
0.0837025 2.86066 8.81 103 112 111
0.0934519 2.86391 8.82 101 110 108
0.103223 2.86715 8.83 104 113 111
0.113144 2.87365 8.85 105 114 112
0.12297 2.8769 8.86 103 112 110
0.132818 2.88014 8.87 101 110 108
0.142527 2.88014 8.87 103 112 110
0.152408 2.88339 8.88 102 113 111
0.162493 2.88988 8.9 102 113 111
0.172429 2.89313 8.91 100 111 109
0.182386 2.89638 8.92 108 119 117
0.192365 2.89962 8.93 110 121 119
0.202366 2.90287 8.94 98 109 107
0.212389 2.90612 8.95 111 120 118
0.222683 2.91261 8.97 98 107 105
0.23302 2.91911 8.99 103 112 110
0.24313 2.92235 9 103 112 110
0.253263 2.9256 9.01 105 114 112
0.263417 2.92885 9.02 103 112 110
0.273593 2.9321 9.03 102 111 109
0.283791 2.93534 9.04 110 119 117
0.294012 2.93859 9.05 112 121 119
0.303918 2.93859 9.05 109 118 116
0.313824 2.93859 9.05 98 107 105
0.324088 2.94184 9.06 101 110 108
0.334005 2.94184 9.06 105 112 108
0.344301 2.94508 9.07 106 113 109
0.35462 2.94833 9.08 106 113 109
0.36496 2.95158 9.09 113 120 116
0.375323 2.95482 9.1 114 121 117
0.385707 2.95807 9.11 113 120 116
0.396113 2.96132 9.12 110 117 113
0.406541 2.96457 9.13 107 114 110
0.416991 2.96781 9.14 99 106 102
0.427463 2.97106 9.15 95 102 98
0.437479 2.97106 9.15 109 114 110
0.447983 2.97431 9.16 106 111 107
0.45801 2.97431 9.16 81 87 80
0.468036 2.97431 9.16 70 76 69
-1.52971 2.91266 8.94 127 136 122
-1.52162 2.91592 8.95 125 134 120
-1.51351 2.91918 8.96 116 125 116
-1.50371 2.91918 8.96 105 114 105
-1.4939 2.91918 8.96 106 114 107
-1.48409 2.91918 8.96 107 115 108
-1.47428 2.91918 8.96 109 115 108
-1.46284 2.91592 8.95 112 118 111
-1.45142 2.91266 8.94 114 120 113
-1.44164 2.91266 8.94 114 120 113
-1.43185 2.91266 8.94 118 120 114
-1.42047 2.90941 8.93 119 121 115
-1.40912 2.90615 8.92 118 120 114
-1.39936 2.90615 8.92 121 123 117
-1.38803 2.90289 8.91 122 124 118
-1.37673 2.89963 8.9 121 123 117
-1.36546 2.89637 8.89 117 119 113
-1.3542 2.89312 8.88 123 125 119
-1.34297 2.88986 8.87 113 118 114
-1.33025 2.88334 8.85 115 120 116
-1.31758 2.87683 8.83 116 121 117
-1.30643 2.87357 8.82 115 120 116
-1.29384 2.86705 8.8 120 125 121
-1.28129 2.86054 8.78 116 121 117
-1.26878 2.85402 8.76 116 121 117
-1.25632 2.8475 8.74 119 124 120
-1.24532 2.84425 8.73 121 128 119
-1.23435 2.84099 8.72 121 128 119
-1.2234 2.83773 8.71 111 114 106
-1.21387 2.83773 8.71 128 131 123
-1.20295 2.83447 8.7 137 143 136
-1.19206 2.83121 8.69 147 153 146
-1.18118 2.82796 8.68 148 156 149
-1.17168 2.82796 8.68 148 156 149
-1.16084 2.8247 8.67 162 173 165
-1.15002 2.82144 8.66 162 173 165
-1.13923 2.81818 8.65 148 159 151
-1.12845 2.81492 8.64 148 159 151
-1.119 2.81492 8.64 146 156 151
-1.10825 2.81167 8.63 138 148 143
-1.09753 2.80841 8.62 144 153 151
-1.08684 2.80515 8.61 145 154 152
-1.07616 2.80189 8.6 150 159 157
-1.06551 2.79863 8.59 147 156 154
-1.05487 2.79538 8.58 157 166 164
-1.04426 2.79212 8.57 150 159 157
-1.03247 2.7856 8.55 158 167 166
-1.02191 2.78234 8.54 143 152 151
-1.01138 2.77909 8.53 145 154 153
-0.999693 2.77257 8.51 147 156 155
-0.989214 2.76931 8.5 148 157 156
-0.978758 2.76605 8.49 150 159 158
-0.969464 2.76605 8.49 151 160 159
-0.95904 2.7628 8.48 152 161 160
-0.949758 2.7628 8.48 154 163 162
-0.940476 2.7628 8.48 152 161 160
-0.931194 2.7628 8.48 147 156 155
-0.922999 2.76605 8.49 147 156 155
-0.913705 2.76605 8.49 148 154 154
-0.904412 2.76605 8.49 149 155 155
-0.896173 2.76931 8.5 149 153 153
-0.886869 2.76931 8.5 151 155 155
-0.878598 2.77257 8.51 152 156 155
-0.870304 2.77583 8.52 149 153 152
-0.860978 2.77583 8.52 154 159 155
-0.852652 2.77909 8.53 148 153 149
-0.843315 2.77909 8.53 155 160 156
-0.834956 2.78234 8.54 154 159 155
-0.825608 2.78234 8.54 152 157 153
-0.817216 2.7856 8.55 152 157 153
-0.807857 2.7856 8.55 154 159 155
-0.798498 2.7856 8.55 156 161 157
-0.790062 2.78886 8.56 162 167 163
-0.780692 2.78886 8.56 158 163 159
-0.770421 2.7856 8.55 153 160 156
-0.761063 2.7856 8.55 156 163 159
-0.752583 2.78886 8.56 152 159 155
-0.743213 2.78886 8.56 149 156 152
-0.733843 2.78886 8.56 148 158 153
-0.724474 2.78886 8.56 150 160 155
-0.715104 2.78886 8.56 150 160 155
-0.705734 2.78886 8.56 150 160 155
-0.696364 2.78886 8.56 152 162 157
-0.687797 2.79212 8.57 151 161 156
-0.679208 2.79538 8.58 150 160 155
-0.669816 2.79538 8.58 150 160 155
-0.661194 2.79863 8.59 150 157 153
-0.652551 2.80189 8.6 152 159 155
-0.643137 2.80189 8.6 154 160 159
-0.632986 2.79863 8.59 152 158 157
-0.622858 2.79538 8.58 150 156 155
-0.612751 2.79212 8.57 150 156 155
-0.603371 2.79212 8.57 155 161 160
-0.592604 2.7856 8.55 153 159 158
-0.582563 2.78234 8.54 153 160 156
-0.572544 2.77909 8.53 150 157 153
-0.563207 2.77909 8.53 153 160 156
-0.55387 2.77909 8.53 153 160 156
-0.544533 2.77909 8.53 150 157 153
-0.535196 2.77909 8.53 150 157 153
-0.526475 2.78234 8.54 150 157 153
-0.517733 2.7856 8.55 154 161 157
-0.508969 2.78886 8.56 159 166 162
-0.500183 2.79212 8.57 153 160 156
-0.490802 2.79212 8.57 149 155 154
-0.481983 2.79538 8.58 153 159 158
-0.472591 2.79538 8.58 154 160 159
-0.4632 2.79538 8.58 154 160 159
-0.454337 2.79863 8.59 153 159 158
-0.444934 2.79863 8.59 153 159 158
-0.436039 2.80189 8.6 149 155 154
-0.426625 2.80189 8.6 149 155 154
-0.417211 2.80189 8.6 149 156 152
-0.407798 2.80189 8.6 150 157 153
-0.398384 2.80189 8.6 150 157 153
-0.389423 2.80515 8.61 148 155 151
-0.379999 2.80515 8.61 137 144 140
-0.370574 2.80515 8.61 148 155 151
-0.36115 2.80515 8.61 151 156 152
-0.351725 2.80515 8.61 154 159 155
-0.342301 2.80515 8.61 155 160 156
-0.333263 2.80841 8.62 154 159 155
-0.323827 2.80841 8.62 154 159 155
-0.314392 2.80841 8.62 152 157 153
-0.304956 2.80841 8.62 151 156 152
-0.295521 2.80841 8.62 151 156 152
-0.286085 2.80841 8.62 151 156 152
-0.27665 2.80841 8.62 152 157 153
-0.267214 2.80841 8.62 152 157 153
-0.257779 2.80841 8.62 154 159 155
-0.248344 2.80841 8.62 157 162 158
-0.239185 2.81167 8.63 136 141 137
-0.229739 2.81167 8.63 140 147 143
-0.220292 2.81167 8.63 157 164 160
-0.210846 2.81167 8.63 153 163 158
-0.2014 2.81167 8.63 148 158 153
-0.191953 2.81167 8.63 145 155 150
-0.182718 2.81492 8.64 157 167 162
-0.173261 2.81492 8.64 164 174 169
-0.163804 2.81492 8.64 164 174 169
-0.154346 2.81492 8.64 159 169 164
-0.144889 2.81492 8.64 147 157 152
-0.135432 2.81492 8.64 143 153 148
-0.125974 2.81492 8.64 146 156 151
-0.116517 2.81492 8.64 145 155 150
-0.10706 2.81492 8.64 153 163 158
-0.0977152 2.81818 8.65 152 162 157
-0.0882469 2.81818 8.65 147 157 152
-0.0788696 2.82144 8.66 142 152 147
-0.0694705 2.8247 8.67 123 133 128
-0.0600495 2.82796 8.68 102 113 112
-0.0506066 2.83121 8.69 105 116 115
-0.0411419 2.83447 8.7 101 113 115
-0.0316552 2.83773 8.71 103 115 117
-0.0221212 2.83773 8.71 105 117 119
-0.0126017 2.84099 8.72 104 116 118
-0.00306028 2.84425 8.73 105 115 117
0.00650302 2.8475 8.74 107 117 119
0.0160698 2.8475 8.74 103 113 115
0.025666 2.85076 8.75 105 115 117
0.0352437 2.85076 8.75 105 113 115
0.0449239 2.85728 8.77 109 117 119
0.0545857 2.86054 8.78 107 116 115
0.0642694 2.86379 8.79 103 112 111
0.073975 2.86705 8.8 107 116 115
0.0837025 2.87031 8.81 103 112 111
0.0934519 2.87357 8.82 101 110 108
0.103223 2.87683 8.83 103 112 110
0.113016 2.88008 8.84 104 113 111
0.122831 2.88334 8.85 104 113 111
0.132818 2.88986 8.87 100 111 109
0.142527 2.88986 8.87 103 114 112
0.152408 2.89312 8.88 105 116 114
0.162311 2.89637 8.89 101 112 110
0.172235 2.89963 8.9 101 112 110
0.182182 2.90289 8.91 101 112 110
0.192365 2.90941 8.93 100 111 109
0.202366 2.91266 8.94 100 111 109
0.212389 2.91592 8.95 113 124 122
0.222683 2.92244 8.97 88 99 97
0.23276 2.9257 8.98 100 111 109
0.24313 2.93221 9 102 113 111
0.253263 2.93547 9.01 103 114 112
0.263417 2.93873 9.02 102 113 111
0.273593 2.94199 9.03 100 111 109
0.283791 2.94524 9.04 110 121 119
0.293687 2.94524 9.04 105 114 112
0.303918 2.9485 9.05 103 112 110
0.313824 2.9485 9.05 103 112 110
0.32373 2.9485 9.05 104 113 111
0.334005 2.95176 9.06 105 115 110
0.344301 2.95502 9.07 105 115 110
0.354229 2.95502 9.07 103 113 108
0.364559 2.95828 9.08 102 112 107
0.37491 2.96153 9.09 87 97 92
0.385707 2.96805 9.11 108 118 113
0.396113 2.97131 9.12 110 120 115
0.406541 2.97457 9.13 111 121 116
0.416535 2.97457 9.13 115 120 116
0.426996 2.97782 9.14 98 103 99
0.437 2.97782 9.14 85 84 81
-1.51482 2.91265 8.91 119 124 111
-1.50676 2.91592 8.92 118 124 117
-1.49699 2.91592 8.92 105 111 104
-1.48723 2.91592 8.92 105 111 104
-1.47912 2.91919 8.93 107 113 106
-1.46935 2.91919 8.93 114 116 110
-1.45957 2.91919 8.93 116 118 112
-1.4498 2.91919 8.93 118 120 114
-1.44002 2.91919 8.93 117 119 113
-1.43025 2.91919 8.93 119 121 115
-1.41888 2.91592 8.92 117 119 113
-1.40912 2.91592 8.92 119 121 115
-1.39936 2.91592 8.92 112 114 108
-1.38803 2.91265 8.91 98 100 94
-1.37673 2.90938 8.9 115 117 111
-1.36699 2.90938 8.9 118 120 114
-1.3542 2.90284 8.88 128 130 124
-1.34297 2.89957 8.87 104 109 105
-1.33025 2.89304 8.85 112 117 113
-1.31907 2.88977 8.84 115 119 118
-1.30643 2.88323 8.82 114 118 117
-1.29384 2.87669 8.8 119 123 122
-1.28129 2.87015 8.78 120 124 123
-1.26878 2.86362 8.76 116 121 117
-1.25632 2.85708 8.74 115 120 116
-1.24532 2.85381 8.73 121 127 120
-1.23294 2.84727 8.71 128 134 127
-1.2234 2.84727 8.71 125 131 124
-1.21247 2.844 8.7 123 129 122
-1.20295 2.844 8.7 129 130 127
-1.19206 2.84073 8.69 147 148 145
-1.18118 2.83746 8.68 157 162 158
-1.17168 2.83746 8.68 155 160 156
-1.16084 2.83419 8.67 143 153 148
-1.15002 2.83093 8.66 145 155 150
-1.13923 2.82766 8.65 145 155 150
-1.12845 2.82439 8.64 144 154 149
-1.119 2.82439 8.64 146 156 151
-1.10825 2.82112 8.63 146 156 151
-1.09753 2.81785 8.62 146 155 153
-1.08684 2.81458 8.61 146 155 153
-1.07616 2.81131 8.6 147 156 154
-1.06551 2.80804 8.59 145 154 152
-1.05487 2.80477 8.58 155 164 162
-1.04426 2.8015 8.57 150 159 157
-1.03247 2.79497 8.55 159 168 166
-1.02191 2.7917 8.54 148 157 155
-1.01019 2.78516 8.52 146 157 155
-0.999693 2.78189 8.51 145 156 154
-0.988051 2.77535 8.49 146 157 156
-0.977605 2.77208 8.48 145 156 155
-0.968323 2.77208 8.48 150 161 160
-0.957909 2.76882 8.47 149 160 159
-0.948638 2.76882 8.47 146 157 156
-0.939367 2.76882 8.47 146 157 156
-0.930096 2.76882 8.47 146 157 156
-0.920824 2.76882 8.47 148 159 158
-0.911553 2.76882 8.47 150 156 156
-0.903347 2.77208 8.48 150 156 156
-0.894065 2.77208 8.48 151 155 155
-0.884783 2.77208 8.48 150 154 154
-0.876533 2.77535 8.49 151 155 154
-0.868261 2.77862 8.5 151 155 154
-0.858957 2.77862 8.5 154 159 155
-0.850653 2.78189 8.51 151 156 152
-0.842326 2.78516 8.52 156 161 157
-0.833 2.78516 8.52 151 156 152
-0.824641 2.78843 8.53 155 160 156
-0.815304 2.78843 8.53 154 159 155
-0.805967 2.78843 8.53 154 159 155
-0.79663 2.78843 8.53 149 154 150
-0.787293 2.78843 8.53 146 153 149
-0.777956 2.78843 8.53 152 159 155
-0.768619 2.78843 8.53 150 157 153
-0.759282 2.78843 8.53 148 155 151
-0.749945 2.78843 8.53 149 156 152
-0.740608 2.78843 8.53 152 159 155
-0.731272 2.78843 8.53 146 155 153
-0.721935 2.78843 8.53 155 164 162
-0.712598 2.78843 8.53 152 162 157
-0.703261 2.78843 8.53 148 158 153
-0.693924 2.78843 8.53 148 158 153
-0.685389 2.7917 8.54 137 147 142
-0.676833 2.79497 8.55 147 157 152
-0.668255 2.79824 8.56 150 160 155
-0.659655 2.8015 8.57 148 158 153
-0.650274 2.8015 8.57 150 160 155
-0.640893 2.8015 8.57 152 159 155
-0.630776 2.79824 8.56 148 155 151
-0.621406 2.79824 8.56 147 153 152
-0.611321 2.79497 8.55 146 152 151
-0.601258 2.7917 8.54 155 161 160
-0.591217 2.78843 8.53 155 161 160
-0.581198 2.78516 8.52 146 153 149
-0.571872 2.78516 8.52 149 156 152
-0.562546 2.78516 8.52 150 157 153
-0.55322 2.78516 8.52 152 159 155
-0.543894 2.78516 8.52 153 160 156
-0.535196 2.78843 8.53 153 160 156
-0.525859 2.78843 8.53 149 156 152
-0.517127 2.7917 8.54 152 159 155
-0.508374 2.79497 8.55 148 154 153
-0.499599 2.79824 8.56 148 154 153
-0.490229 2.79824 8.56 149 155 155
-0.481421 2.8015 8.57 159 165 165
-0.47204 2.8015 8.57 155 161 161
-0.46266 2.8015 8.57 154 160 160
-0.453279 2.8015 8.57 152 158 158
-0.444416 2.80477 8.58 147 153 153
-0.435025 2.80477 8.58 148 154 153
-0.425633 2.80477 8.58 149 155 154
-0.416241 2.80477 8.58 147 153 152
-0.40685 2.80477 8.58 155 161 160
-0.397458 2.80477 8.58 156 162 161
-0.388518 2.80804 8.59 156 162 161
-0.379116 2.80804 8.59 154 161 157
-0.369713 2.80804 8.59 150 157 153
-0.360311 2.80804 8.59 150 155 151
-0.350908 2.80804 8.59 146 151 147
-0.341903 2.81131 8.6 147 148 145
-0.332489 2.81131 8.6 154 155 152
-0.323076 2.81131 8.6 154 155 152
-0.313662 2.81131 8.6 152 153 150
-0.304249 2.81131 8.6 147 148 145
-0.294835 2.81131 8.6 149 150 147
-0.285422 2.81131 8.6 150 154 153
-0.276008 2.81131 8.6 152 156 155
-0.266594 2.81131 8.6 150 154 153
-0.257181 2.81131 8.6 149 153 152
-0.247767 2.81131 8.6 149 153 152
-0.238354 2.81131 8.6 147 151 150
-0.229206 2.81458 8.61 159 165 164
-0.219782 2.81458 8.61 150 156 155
-0.210357 2.81458 8.61 142 151 149
-0.200933 2.81458 8.61 150 159 157
-0.191731 2.81785 8.62 145 154 152
-0.182295 2.81785 8.62 146 155 153
-0.17286 2.81785 8.62 145 155 150
-0.163424 2.81785 8.62 133 143 138
-0.153989 2.81785 8.62 140 150 145
-0.144721 2.82112 8.63 145 155 150
-0.135275 2.82112 8.63 143 153 148
-0.125974 2.82439 8.64 146 156 151
-0.116517 2.82439 8.64 136 146 141
-0.10706 2.82439 8.64 126 136 131
-0.0977152 2.82766 8.65 107 117 112
-0.0883489 2.83093 8.66 100 110 105
-0.0789607 2.83419 8.67 94 104 99
-0.0694705 2.83419 8.67 93 103 98
-0.0600495 2.83746 8.68 99 110 108
-0.0506066 2.84073 8.69 102 113 111
-0.0411419 2.844 8.7 101 112 111
-0.0316552 2.84727 8.71 102 113 112
-0.0221466 2.85054 8.72 99 112 111
-0.0126017 2.85054 8.72 101 114 113
-0.00306028 2.85381 8.73 103 115 117
0.00650302 2.85708 8.74 104 116 118
0.0160698 2.85708 8.74 105 115 117
0.025666 2.86035 8.75 105 115 117
0.035284 2.86362 8.76 103 111 113
0.0448727 2.86362 8.76 105 113 115
0.0545236 2.86688 8.77 105 114 113
0.0641963 2.87015 8.78 105 114 113
0.073975 2.87669 8.8 104 113 112
0.0837025 2.87996 8.81 103 112 111
