ply
format ascii 1.0
comment Created by Open3D
element vertex 1491
property double x
property double y
property double z
property uchar red
property uchar green
property uchar blue
end_header
1.71702 0.142001 8.98 69 176 203
1.72492 0.141843 8.97 77 179 202
1.73087 0.141527 8.95 76 178 201
1.73873 0.141369 8.94 84 177 201
1.74656 0.141211 8.93 85 178 202
1.75633 0.141211 8.93 90 178 203
1.7661 0.141211 8.93 88 176 201
1.77389 0.141053 8.92 90 176 201
1.78166 0.140894 8.91 92 178 203
1.79141 0.140894 8.91 90 178 203
1.79914 0.140736 8.9 91 179 204
1.80482 0.14042 8.88 91 181 206
1.81045 0.140104 8.86 89 179 204
1.81604 0.139787 8.84 87 180 204
1.82365 0.139629 8.83 84 177 201
1.82916 0.139313 8.81 83 178 202
1.83463 0.138997 8.79 83 178 202
1.84216 0.138839 8.78 84 178 205
1.84966 0.138681 8.77 84 178 205
1.85714 0.138522 8.76 85 179 206
1.86673 0.138522 8.76 89 183 210
1.87631 0.138522 8.76 86 178 205
1.8859 0.138522 8.76 84 176 203
1.89766 0.138681 8.77 90 175 203
1.90508 0.138522 8.76 89 174 202
1.91467 0.138522 8.76 90 172 201
1.92206 0.138364 8.75 92 174 203
1.93164 0.138364 8.75 91 176 204
1.939 0.138206 8.74 86 171 199
1.94634 0.138048 8.73 76 170 197
1.95589 0.138048 8.73 77 171 198
1.9632 0.13789 8.72 74 172 200
1.97048 0.137732 8.71 76 174 202
1.98001 0.137732 8.71 78 181 215
1.98955 0.137732 8.71 61 164 198
1.99678 0.137574 8.7 51 165 205
2.004 0.137416 8.69 37 151 191
2.01351 0.137416 8.69 32 155 197
2.02303 0.137416 8.69 32 155 197
2.03254 0.137416 8.69 26 154 195
2.04205 0.137416 8.69 25 153 194
2.05156 0.137416 8.69 25 153 194
2.06345 0.137574 8.7 24 152 193
2.07297 0.137574 8.7 20 149 193
2.08249 0.137574 8.7 19 148 192
2.09442 0.137732 8.71 10 147 190
2.10395 0.137732 8.71 9 146 189
2.11349 0.137732 8.71 5 146 190
2.12546 0.13789 8.72 0 140 184
2.135 0.13789 8.72 0 141 185
2.14701 0.138048 8.73 0 140 184
2.15903 0.138206 8.74 0 134 178
2.17356 0.138522 8.76 2 143 187
2.18564 0.138681 8.77 2 142 189
2.19775 0.138839 8.78 2 142 189
2.20987 0.138997 8.79 13 140 189
2.22454 0.139313 8.81 13 140 189
2.23672 0.139471 8.82 34 141 190
2.24892 0.139629 8.83 36 143 192
2.26371 0.139946 8.85 46 142 191
2.27596 0.140104 8.86 37 133 182
2.28824 0.140262 8.87 61 132 179
2.29795 0.140262 8.87 45 116 163
1.67729 0.165364 9.78 72 140 178
1.68799 0.165364 9.78 44 138 178
1.6987 0.165364 9.78 36 130 170
1.70591 0.165026 9.76 22 136 178
1.71659 0.165026 9.76 25 139 181
1.72373 0.164688 9.74 20 140 185
1.73083 0.16435 9.72 24 144 189
0 0 0 26 146 191
0 0 0 23 143 188
0 0 0 31 146 192
0 0 0 37 152 198
1.68492 0.155219 9.18 27 139 186
1.68573 0.154374 9.13 39 151 198
1.6883 0.153698 9.09 49 159 201
1.69264 0.15319 9.06 51 161 203
1.70068 0.153021 9.05 57 166 202
1.70492 0.152514 9.02 59 168 204
1.71289 0.152345 9.01 79 184 211
1.71702 0.151838 8.98 71 176 203
1.72492 0.151669 8.97 74 179 201
1.73087 0.15133 8.95 74 179 201
1.73873 0.151161 8.94 84 178 200
1.74656 0.150992 8.93 83 177 199
1.75633 0.150992 8.93 102 189 212
1.76413 0.150823 8.92 100 187 210
1.77389 0.150823 8.92 92 176 200
1.78365 0.150823 8.92 93 177 201
1.79141 0.150654 8.91 94 178 202
1.79914 0.150485 8.9 94 178 202
1.80685 0.150316 8.89 91 180 203
1.81249 0.149978 8.87 91 180 203
1.81809 0.14964 8.85 86 179 203
1.82365 0.149301 8.83 80 173 197
1.82916 0.148963 8.81 81 176 200
1.83672 0.148794 8.8 82 177 201
1.84216 0.148456 8.78 82 177 201
1.84966 0.148287 8.77 82 177 201
1.85714 0.148118 8.76 81 176 200
1.86673 0.148118 8.76 82 177 201
1.87631 0.148118 8.76 85 175 200
1.8859 0.148118 8.76 84 174 199
1.89766 0.148287 8.77 86 172 197
1.90725 0.148287 8.77 88 174 199
1.91467 0.148118 8.76 88 174 199
1.92426 0.148118 8.76 93 179 204
1.93164 0.147949 8.75 96 184 209
1.939 0.14778 8.74 84 172 197
1.94634 0.147611 8.73 75 171 198
1.95589 0.147611 8.73 76 172 199
1.9632 0.147441 8.72 76 174 202
1.97048 0.147272 8.71 76 174 202
1.97774 0.147103 8.7 72 174 206
1.98726 0.147103 8.7 70 172 204
1.99449 0.146934 8.69 69 180 217
2.004 0.146934 8.69 48 159 196
2.0112 0.146765 8.68 33 152 193
2.0207 0.146765 8.68 29 148 189
2.0302 0.146765 8.68 29 151 196
2.04205 0.146934 8.69 28 150 195
2.05156 0.146934 8.69 22 149 193
2.06107 0.146934 8.69 24 151 195
2.07297 0.147103 8.7 20 151 195
2.08249 0.147103 8.7 18 149 193
2.09442 0.147272 8.71 8 148 190
2.10395 0.147272 8.71 4 144 186
2.11349 0.147272 8.71 0 141 185
2.12302 0.147272 8.71 0 141 185
2.135 0.147441 8.72 0 141 185
2.14701 0.147611 8.73 0 134 178
2.15903 0.14778 8.74 0 133 180
2.17356 0.148118 8.76 4 144 191
2.18564 0.148287 8.77 0 142 189
2.19775 0.148456 8.78 0 141 188
2.20987 0.148625 8.79 15 144 193
2.22454 0.148963 8.81 16 145 194
2.23926 0.149301 8.83 35 144 193
2.25147 0.149471 8.84 38 147 196
2.26371 0.14964 8.85 41 139 188
2.27596 0.149809 8.86 31 129 178
2.28824 0.149978 8.87 58 129 176
2.29795 0.149978 8.87 52 123 170
1.679 0.176257 9.79 45 109 143
1.68972 0.176257 9.79 45 130 170
1.70043 0.176257 9.79 50 135 175
1.7094 0.176077 9.78 26 133 176
1.71835 0.175897 9.77 30 137 180
1.7255 0.175537 9.75 29 141 188
1.73261 0.175177 9.73 30 142 189
1.7361 0.174457 9.69 30 145 191
1.72868 0.172656 9.59 36 151 197
1.71379 0.170136 9.45 39 151 198
0 0 0 37 149 196
0 0 0 36 147 191
1.68758 0.164555 9.14 36 147 191
1.69016 0.163835 9.1 50 156 194
1.69451 0.163294 9.07 61 167 205
1.70068 0.162934 9.05 66 172 204
1.70681 0.162574 9.03 68 174 206
1.71289 0.162214 9.01 74 178 203
1.71702 0.161674 8.98 72 176 201
1.723 0.161314 8.96 74 176 199
1.73087 0.161134 8.95 75 177 200
1.73873 0.160954 8.94 82 175 199
1.74656 0.160774 8.93 82 175 199
1.75436 0.160594 8.92 91 178 201
1.76413 0.160594 8.92 91 178 201
1.77389 0.160594 8.92 93 177 201
1.78365 0.160594 8.92 93 177 201
1.79141 0.160414 8.91 93 177 201
1.80116 0.160414 8.91 94 178 202
1.80685 0.160054 8.89 92 179 202
1.81454 0.159874 8.88 92 179 202
1.82015 0.159514 8.86 87 178 201
1.82365 0.158973 8.83 87 178 201
1.83124 0.158793 8.82 83 178 202
1.83672 0.158433 8.8 87 182 206
1.84425 0.158253 8.79 90 185 209
1.84966 0.157893 8.77 83 178 202
1.85714 0.157713 8.76 83 178 202
1.86673 0.157713 8.76 83 178 202
1.87631 0.157713 8.76 85 178 202
1.88806 0.157893 8.77 82 175 199
1.89766 0.157893 8.77 84 172 197
1.90725 0.157893 8.77 86 174 199
1.91685 0.157893 8.77 89 175 200
1.92426 0.157713 8.76 90 176 201
1.93164 0.157533 8.75 90 178 203
1.94122 0.157533 8.75 88 176 201
1.94634 0.157173 8.73 80 174 201
1.95589 0.157173 8.73 77 171 198
1.9632 0.156993 8.72 74 169 198
1.97048 0.156813 8.71 78 173 202
1.97774 0.156633 8.7 70 172 202
1.98498 0.156453 8.69 61 163 193
1.99449 0.156453 8.69 63 168 202
2.0017 0.156273 8.68 58 163 197
2.0112 0.156273 8.68 42 154 196
2.0207 0.156273 8.68 32 144 186
2.0302 0.156273 8.68 33 150 196
2.0397 0.156273 8.68 33 150 196
2.05156 0.156453 8.69 26 149 196
2.06107 0.156453 8.69 16 139 186
2.07297 0.156633 8.7 26 156 202
2.08249 0.156633 8.7 17 147 193
2.09442 0.156813 8.71 6 142 187
2.10395 0.156813 8.71 3 139 184
2.11349 0.156813 8.71 1 141 188
2.12302 0.156813 8.71 1 141 188
2.135 0.156993 8.72 0 140 187
2.14455 0.156993 8.72 0 138 185
2.15903 0.157353 8.74 0 139 186
2.17108 0.157533 8.75 0 139 186
2.18315 0.157713 8.76 0 138 188
2.19775 0.158073 8.78 0 139 189
2.20987 0.158253 8.79 23 160 210
2.22454 0.158613 8.81 23 160 210
2.23926 0.158973 8.83 37 150 201
2.25147 0.159154 8.84 28 141 192
2.26626 0.159514 8.86 34 137 185
2.27853 0.159694 8.87 32 135 183
2.29082 0.159874 8.88 57 131 177
2.30054 0.159874 8.88 43 117 163
1.69144 0.187172 9.8 49 126 164
1.70391 0.187363 9.81 68 145 183
1.71115 0.186981 9.79 33 136 175
1.72011 0.18679 9.78 28 131 170
1.72727 0.186408 9.76 26 138 185
1.7344 0.186026 9.74 30 142 189
0 0 0 31 143 190
1.73409 0.183734 9.62 38 150 197
0 0 0 43 153 200
0 0 0 42 152 199
0 0 0 44 153 197
1.69127 0.174948 9.16 44 153 197
1.69016 0.173802 9.1 53 155 192
1.69451 0.173229 9.07 64 166 203
1.70068 0.172847 9.05 67 169 199
1.70681 0.172465 9.03 61 163 193
1.71289 0.172083 9.01 55 159 184
1.71702 0.17151 8.98 66 170 195
1.723 0.171128 8.96 70 174 199
1.73087 0.170937 8.95 73 177 202
1.73678 0.170555 8.93 83 176 200
1.74656 0.170555 8.93 80 173 197
1.75436 0.170364 8.92 89 175 200
1.76413 0.170364 8.92 90 176 201
1.77389 0.170364 8.92 92 178 203
1.78166 0.170173 8.91 91 177 202
1.79141 0.170173 8.91 93 177 201
1.80116 0.170173 8.91 93 177 201
1.80685 0.169792 8.89 90 177 200
1.81454 0.169601 8.88 91 178 201
1.82015 0.169219 8.86 90 179 202
1.82572 0.168837 8.84 90 179 202
1.83124 0.168455 8.82 85 180 204
1.83672 0.168073 8.8 89 184 208
1.84425 0.167882 8.79 89 186 210
1.85177 0.167691 8.78 80 177 201
1.85714 0.167309 8.76 87 182 206
1.86673 0.167309 8.76 83 178 202
1.87631 0.167309 8.76 85 180 204
1.8859 0.167309 8.76 84 179 203
1.89549 0.167309 8.76 85 175 200
1.90508 0.167309 8.76 84 174 199
1.91467 0.167309 8.76 85 175 200
1.92426 0.167309 8.76 82 172 197
1.93164 0.167118 8.75 80 173 197
1.939 0.166927 8.74 82 175 199
1.94634 0.166736 8.73 83 176 200
1.95365 0.166545 8.72 80 173 197
1.96094 0.166354 8.71 74 170 197
1.97048 0.166354 8.71 74 170 197
1.97774 0.166163 8.7 72 172 200
1.98498 0.165972 8.69 65 165 193
1.99219 0.165781 8.68 60 164 196
2.0017 0.165781 8.68 65 169 201
2.0112 0.165781 8.68 57 162 203
2.0207 0.165781 8.68 47 152 193
2.0302 0.165781 8.68 36 147 191
2.0397 0.165781 8.68 32 143 187
2.05156 0.165972 8.69 20 138 188
2.06107 0.165972 8.69 12 130 180
2.07297 0.166163 8.7 30 159 208
2.08249 0.166163 8.7 20 149 198
2.09202 0.166163 8.7 9 144 192
2.10395 0.166354 8.71 9 144 192
2.11349 0.166354 8.71 4 142 189
2.12302 0.166354 8.71 2 140 187
2.13256 0.166354 8.71 2 140 187
2.14455 0.166545 8.72 1 139 186
2.15656 0.166736 8.73 0 139 186
2.17108 0.167118 8.75 0 139 186
2.18315 0.167309 8.76 0 139 189
2.19524 0.1675 8.77 0 139 189
2.20987 0.167882 8.79 0 131 181
2.22454 0.168264 8.81 0 123 173
2.23926 0.168646 8.83 0 116 168
2.25147 0.168837 8.84 0 128 180
2.26626 0.169219 8.86 26 132 184
2.27853 0.16941 8.87 31 137 189
2.29082 0.169601 8.88 57 131 177
1.70217 0.197906 9.8 54 121 154
1.71115 0.197704 9.79 41 137 172
1.72011 0.197502 9.78 34 130 165
1.7255 0.196897 9.75 29 139 186
1.7344 0.196695 9.74 38 148 195
0 0 0 34 144 191
0 0 0 35 145 192
0 0 0 36 147 191
0 0 0 38 149 193
0 0 0 46 153 194
1.70051 0.185992 9.21 51 158 199
1.69759 0.184578 9.14 63 164 198
1.69825 0.183568 9.09 66 167 201
1.70256 0.182962 9.06 72 170 198
1.7087 0.182558 9.04 72 170 198
1.71289 0.181953 9.01 71 170 196
1.71702 0.181347 8.98 72 171 197
1.723 0.180943 8.96 74 174 197
1.72894 0.180539 8.94 76 176 199
1.73678 0.180337 8.93 82 175 199
1.7446 0.180135 8.92 82 175 199
1.75436 0.180135 8.92 87 175 200
1.76215 0.179933 8.91 89 177 202
1.7719 0.179933 8.91 91 177 202
1.78166 0.179933 8.91 91 177 202
1.79141 0.179933 8.91 91 177 202
1.80116 0.179933 8.91 90 176 201
1.80888 0.179731 8.9 89 176 199
1.81454 0.179327 8.88 90 177 200
1.82015 0.178923 8.86 90 179 202
1.82572 0.17852 8.84 89 178 201
1.83332 0.178318 8.83 82 178 200
1.83881 0.177914 8.81 82 178 200
1.84425 0.17751 8.79 74 174 197
1.85177 0.177308 8.78 71 171 194
1.85714 0.176904 8.76 68 165 189
1.86673 0.176904 8.76 75 172 196
1.87631 0.176904 8.76 76 173 197
1.8859 0.176904 8.76 79 176 200
1.89549 0.176904 8.76 82 177 201
1.90508 0.176904 8.76 82 177 201
1.91467 0.176904 8.76 82 175 199
1.92206 0.176702 8.75 79 172 196
1.92943 0.1765 8.74 78 171 195
1.939 0.1765 8.74 80 173 197
1.94634 0.176298 8.73 85 180 204
1.95365 0.176096 8.72 80 175 199
1.96094 0.175894 8.71 75 172 196
1.97048 0.175894 8.71 73 170 194
1.97547 0.17549 8.69 68 168 196
1.98498 0.17549 8.69 65 165 193
1.99219 0.175288 8.68 63 165 195
2.0017 0.175288 8.68 65 167 197
2.0112 0.175288 8.68 64 167 201
2.0207 0.175288 8.68 65 168 202
2.0302 0.175288 8.68 38 148 190
2.0397 0.175288 8.68 40 150 192
2.05156 0.17549 8.69 35 152 198
2.06107 0.17549 8.69 25 142 188
2.07297 0.175692 8.7 25 151 197
2.08249 0.175692 8.7 22 148 194
2.09442 0.175894 8.71 14 148 193
2.10395 0.175894 8.71 14 148 193
2.11349 0.175894 8.71 5 140 188
2.12302 0.175894 8.71 3 138 186
2.13256 0.175894 8.71 1 139 186
2.14455 0.176096 8.72 1 139 186
2.15903 0.1765 8.74 2 139 189
2.17108 0.176702 8.75 3 140 190
2.18315 0.176904 8.76 4 141 191
2.19775 0.177308 8.78 2 139 189
2.20987 0.17751 8.79 0 137 187
2.22707 0.178116 8.82 0 133 183
2.23926 0.178318 8.83 0 126 178
2.25402 0.178722 8.85 5 137 189
2.26626 0.178923 8.86 23 136 187
2.27853 0.179125 8.87 6 119 170
2.29082 0.179327 8.88 49 125 171
1.71115 0.208428 9.79 18 103 136
1.71659 0.207789 9.76 24 109 142
1.72373 0.207364 9.74 11 115 160
1.73261 0.207151 9.73 42 146 191
1.73789 0.206512 9.7 31 141 188
0 0 0 33 143 190
0 0 0 38 147 191
0 0 0 42 151 195
0 0 0 54 156 198
0 0 0 59 161 203
1.70502 0.195441 9.18 67 161 195
1.70385 0.194164 9.12 75 169 203
1.7082 0.193525 9.09 77 171 198
1.71059 0.192673 9.05 76 170 197
1.71479 0.192035 9.02 74 170 197
1.71702 0.191183 8.98 74 170 197
1.72108 0.190544 8.95 75 172 196
1.72894 0.190332 8.94 76 173 197
1.73678 0.190119 8.93 80 173 197
1.7446 0.189906 8.92 80 173 197
1.7524 0.189693 8.91 86 174 199
1.76017 0.18948 8.9 87 175 200
1.7719 0.189693 8.91 88 176 201
1.77966 0.18948 8.9 88 176 201
1.7894 0.18948 8.9 88 177 200
1.79914 0.18948 8.9 87 176 199
1.80685 0.189267 8.89 87 176 199
1.81454 0.189054 8.88 88 177 200
1.82015 0.188628 8.86 91 180 203
1.82572 0.188203 8.84 89 178 201
1.83332 0.18799 8.83 78 174 196
1.83881 0.187564 8.81 78 174 196
1.84425 0.187138 8.79 78 175 199
1.85177 0.186925 8.78 78 175 199
1.85926 0.186712 8.77 77 177 200
1.86673 0.186499 8.76 79 179 202
1.87417 0.186287 8.75 81 178 202
1.88375 0.186287 8.75 79 176 200
1.89333 0.186287 8.75 79 176 200
1.90291 0.186287 8.75 79 176 200
1.91248 0.186287 8.75 80 175 199
1.92206 0.186287 8.75 77 172 196
1.92943 0.186074 8.74 77 172 196
1.939 0.186074 8.74 77 172 196
1.94634 0.185861 8.73 80 177 201
1.95365 0.185648 8.72 75 172 196
1.96094 0.185435 8.71 76 176 199
1.97048 0.185435 8.71 73 173 196
1.97774 0.185222 8.7 62 166 191
1.98498 0.185009 8.69 63 167 192
1.99449 0.185009 8.69 63 167 197
2.0017 0.184796 8.68 61 165 195
2.0112 0.184796 8.68 61 164 198
2.0207 0.184796 8.68 63 166 200
2.0302 0.184796 8.68 51 161 201
2.04205 0.185009 8.69 46 156 196
2.05156 0.185009 8.69 33 156 198
2.06345 0.185222 8.7 26 149 191
2.07297 0.185222 8.7 16 146 192
2.08249 0.185222 8.7 14 144 190
2.09442 0.185435 8.71 8 142 187
2.10395 0.185435 8.71 10 144 189
2.11349 0.185435 8.71 5 140 188
2.12302 0.185435 8.71 3 138 186
2.135 0.185648 8.72 1 135 186
2.14455 0.185648 8.72 2 136 187
2.15903 0.186074 8.74 1 138 188
2.17108 0.186287 8.75 1 138 188
2.18315 0.186499 8.76 2 139 189
2.19775 0.186925 8.78 0 137 187
2.21239 0.187351 8.8 1 135 186
2.22707 0.187777 8.82 2 136 187
2.23926 0.18799 8.83 5 137 188
2.25402 0.188416 8.85 4 136 187
2.26626 0.188628 8.86 17 130 181
2.27853 0.188841 8.87 7 120 171
2.29082 0.189054 8.88 50 126 174
1.71483 0.218256 9.75 29 99 130
1.72019 0.217585 9.72 24 119 164
1.72727 0.217137 9.7 57 152 197
1.73431 0.216689 9.68 40 144 189
1.73589 0.21557 9.63 42 146 191
0 0 0 41 145 190
0 0 0 41 145 190
0 0 0 54 153 192
0 0 0 60 159 198
1.71616 0.20684 9.24 67 159 193
1.71506 0.205497 9.18 80 172 206
1.71572 0.204377 9.13 77 170 199
1.71815 0.203482 9.09 70 163 192
1.71859 0.202363 9.04 74 168 195
1.72084 0.201467 9 77 171 198
1.72492 0.200796 8.97 77 171 198
1.73087 0.200348 8.95 78 172 199
1.73678 0.1999 8.93 80 173 197
1.7446 0.199676 8.92 80 173 197
1.7524 0.199453 8.91 84 172 197
1.76017 0.199229 8.9 84 172 197
1.76991 0.199229 8.9 88 176 201
1.77766 0.199005 8.89 97 185 210
1.78739 0.199005 8.89 97 185 210
1.79712 0.199005 8.89 87 175 200
1.80482 0.198781 8.88 87 175 200
1.81249 0.198557 8.87 87 175 200
1.82015 0.198333 8.86 88 179 202
1.82572 0.197886 8.84 86 177 200
1.83332 0.197662 8.83 78 174 196
1.83881 0.197214 8.81 78 174 196
1.84635 0.19699 8.8 76 176 199
1.85177 0.196543 8.78 76 176 199
1.85926 0.196319 8.77 79 179 202
1.86673 0.196095 8.76 77 177 200
1.87417 0.195871 8.75 86 183 207
1.88375 0.195871 8.75 80 177 201
1.89333 0.195871 8.75 78 175 199
1.90291 0.195871 8.75 76 173 197
1.91248 0.195871 8.75 80 175 199
1.91986 0.195647 8.74 78 173 197
1.92943 0.195647 8.74 75 172 196
1.93678 0.195423 8.73 74 171 195
1.94634 0.195423 8.73 74 171 195
1.95365 0.195199 8.72 74 171 195
1.96094 0.194976 8.71 76 176 199
1.97048 0.194976 8.71 73 173 196
1.97774 0.194752 8.7 67 173 198
1.98726 0.194752 8.7 60 166 191
1.99449 0.194528 8.69 54 160 190
2.004 0.194528 8.69 56 162 192
2.01351 0.194528 8.69 57 166 197
2.02303 0.194528 8.69 57 166 197
2.03254 0.194528 8.69 50 163 200
2.04205 0.194528 8.69 41 154 191
2.05156 0.194528 8.69 20 148 189
2.06345 0.194752 8.7 24 152 193
2.07297 0.194752 8.7 11 145 190
2.08489 0.194976 8.71 10 144 189
2.09442 0.194976 8.71 8 141 189
2.10395 0.194976 8.71 8 141 189
2.11349 0.194976 8.71 7 139 190
2.12546 0.195199 8.72 6 138 189
2.135 0.195199 8.72 0 133 184
2.14701 0.195423 8.73 0 132 183
2.15903 0.195647 8.74 1 135 187
2.17356 0.196095 8.76 2 136 188
2.18564 0.196319 8.77 1 135 187
2.20025 0.196766 8.79 2 136 188
2.2149 0.197214 8.81 1 133 185
2.22707 0.197438 8.82 10 142 194
2.2418 0.197886 8.84 18 146 198
2.25402 0.198109 8.85 13 141 193
2.26882 0.198557 8.87 22 138 186
2.2811 0.198781 8.88 21 137 185
2.29082 0.198781 8.88 42 121 168
1.70955 0.228232 9.72 59 122 154
1.71488 0.227527 9.69 54 143 184
1.72371 0.227292 9.68 53 142 183
1.72893 0.226588 9.65 37 137 181
1.73409 0.225884 9.62 44 144 188
0 0 0 41 143 187
0 0 0 43 145 189
0 0 0 52 148 188
0 0 0 62 158 198
0 0 0 70 162 194
1.72067 0.216256 9.21 77 169 201
1.72323 0.215317 9.17 81 174 203
1.72382 0.214143 9.12 76 169 198
1.7243 0.212969 9.07 70 164 191
1.72275 0.21156 9.01 78 172 199
1.72877 0.211091 8.99 74 168 195
1.73281 0.210386 8.96 75 169 196
1.73873 0.209917 8.94 80 173 197
1.7446 0.209447 8.92 80 173 197
1.7524 0.209212 8.91 83 171 196
1.76017 0.208977 8.9 83 171 196
1.76991 0.208977 8.9 83 171 196
1.77766 0.208743 8.89 83 171 196
1.78538 0.208508 8.88 79 167 192
1.7951 0.208508 8.88 82 170 195
1.80278 0.208273 8.87 85 175 200
1.81045 0.208038 8.86 82 172 197
1.81809 0.207803 8.85 84 174 199
1.82365 0.207334 8.83 84 174 199
1.83124 0.207099 8.82 78 175 199
1.83881 0.206864 8.81 74 171 195
1.84425 0.206395 8.79 74 174 197
1.85177 0.20616 8.78 83 183 206
1.85926 0.205925 8.77 83 183 206
1.86673 0.20569 8.76 66 166 189
1.87417 0.205455 8.75 72 172 195
1.88375 0.205455 8.75 77 177 200
1.89333 0.205455 8.75 78 173 197
1.90073 0.205221 8.74 78 173 197
1.9103 0.205221 8.74 78 173 197
1.91986 0.205221 8.74 78 173 197
1.92943 0.205221 8.74 78 173 197
1.93678 0.204986 8.73 77 172 196
1.94634 0.204986 8.73 75 172 196
1.95589 0.204986 8.73 75 172 196
1.9632 0.204751 8.72 73 173 196
1.97048 0.204516 8.71 73 173 196
1.98001 0.204516 8.71 66 172 197
1.98726 0.204281 8.7 59 165 190
1.99678 0.204281 8.7 46 152 182
2.004 0.204047 8.69 56 162 192
2.01351 0.204047 8.69 61 167 197
2.02303 0.204047 8.69 59 165 195
2.03254 0.204047 8.69 53 169 204
2.04205 0.204047 8.69 39 155 190
2.05392 0.204281 8.7 14 143 182
2.06345 0.204281 8.7 27 156 195
2.07535 0.204516 8.71 9 144 192
2.08489 0.204516 8.71 8 143 191
2.09442 0.204516 8.71 1 135 186
2.10637 0.204751 8.72 1 135 186
2.11591 0.204751 8.72 7 139 190
2.12546 0.204751 8.72 7 139 190
2.13745 0.204986 8.73 1 133 185
2.14701 0.204986 8.73 0 132 184
2.1615 0.205455 8.75 1 133 185
2.17356 0.20569 8.76 4 136 188
2.18814 0.20616 8.78 4 136 188
2.20275 0.206629 8.8 5 137 189
2.2149 0.206864 8.81 8 134 186
2.22959 0.207334 8.83 11 137 189
2.2418 0.207569 8.84 14 138 190
2.25657 0.208038 8.86 18 142 194
2.26882 0.208273 8.87 29 143 191
2.2811 0.208508 8.88 11 125 173
2.2934 0.208743 8.89 35 105 149
1.70252 0.237896 9.68 67 124 154
1.70781 0.237158 9.65 46 131 171
1.71481 0.236667 9.63 51 136 176
1.72177 0.236175 9.61 36 136 178
1.72688 0.235438 9.58 41 141 183
1.73011 0.234455 9.54 59 161 205
1.73325 0.233472 9.5 50 152 196
0 0 0 50 147 185
0 0 0 64 161 199
1.73102 0.229048 9.32 70 162 194
0 0 0 70 162 194
0 0 0 66 157 186
1.7276 0.224624 9.14 71 162 191
0 0 0 71 164 193
1.72658 0.221921 9.03 74 167 196
1.73069 0.221184 9 74 168 195
0 0 0 76 170 197
1.74262 0.220201 8.96 79 171 198
1.74851 0.219709 8.94 79 171 198
1.75436 0.219218 8.92 82 172 197
1.76017 0.218726 8.9 82 172 197
1.76991 0.218726 8.9 84 172 197
1.77566 0.218235 8.88 84 172 197
1.78337 0.217989 8.87 80 170 195
1.79105 0.217743 8.86 84 174 199
1.80075 0.217743 8.86 82 172 197
1.80841 0.217497 8.85 81 171 196
1.81604 0.217252 8.84 79 172 196
1.82365 0.217006 8.83 79 172 196
1.82916 0.216514 8.81 74 171 195
1.83672 0.216269 8.8 74 171 195
1.84425 0.216023 8.79 72 172 195
1.85177 0.215777 8.78 79 179 202
1.85926 0.215531 8.77 77 179 202
1.86673 0.215286 8.76 75 177 200
1.87417 0.21504 8.75 76 176 199
1.8816 0.214794 8.74 77 177 200
1.89333 0.21504 8.75 80 175 199
1.90073 0.214794 8.74 80 175 199
1.9103 0.214794 8.74 80 173 197
1.91986 0.214794 8.74 80 173 197
1.92943 0.214794 8.74 78 173 197
1.939 0.214794 8.74 75 170 194
1.94634 0.214548 8.73 74 171 195
1.95589 0.214548 8.73 73 170 194
1.9632 0.214303 8.72 70 170 193
1.97274 0.214303 8.72 66 166 189
1.98001 0.214057 8.71 60 166 191
1.98955 0.214057 8.71 61 167 192
1.99678 0.213811 8.7 62 172 198
2.00631 0.213811 8.7 59 169 195
2.01583 0.213811 8.7 59 168 197
2.02535 0.213811 8.7 52 161 190
2.03488 0.213811 8.7 46 160 195
2.0444 0.213811 8.7 44 158 193
2.05392 0.213811 8.7 15 144 183
2.06582 0.214057 8.71 22 151 190
2.07535 0.214057 8.71 12 146 191
2.08489 0.214057 8.71 11 145 190
2.09682 0.214303 8.72 9 144 192
2.10637 0.214303 8.72 4 139 187
2.11591 0.214303 8.72 6 138 189
2.1279 0.214548 8.73 5 137 188
2.13745 0.214548 8.73 3 135 186
2.14947 0.214794 8.74 1 133 184
2.1615 0.21504 8.75 4 132 185
2.17604 0.215531 8.77 7 135 188
2.18814 0.215777 8.78 8 136 189
2.20275 0.216269 8.8 9 137 190
2.2149 0.216514 8.81 13 137 189
2.22959 0.217006 8.83 14 138 190
2.2418 0.217252 8.84 13 137 189
2.25657 0.217743 8.86 13 137 189
2.26882 0.217989 8.87 24 134 181
2.2811 0.218235 8.88 7 117 164
1.69548 0.247472 9.64 68 122 153
1.70073 0.246702 9.61 59 142 182
1.7059 0.245932 9.58 65 148 188
1.7146 0.245675 9.57 43 143 185
1.71967 0.244905 9.54 39 139 181
1.72467 0.244135 9.51 45 150 193
0 0 0 42 147 190
1.73264 0.242338 9.44 56 156 193
1.73374 0.241054 9.39 63 163 200
1.73287 0.239514 9.33 70 162 194
0 0 0 67 159 191
0 0 0 64 150 180
0 0 0 81 167 197
0 0 0 78 169 198
1.7304 0.232326 9.05 76 167 196
1.73454 0.231556 9.02 76 168 195
0 0 0 77 169 196
1.74456 0.230272 8.97 78 170 197
1.75047 0.229759 8.95 79 171 198
1.75633 0.229245 8.93 82 172 197
1.76215 0.228732 8.91 82 172 197
1.76991 0.228475 8.9 85 175 200
1.77566 0.227962 8.88 85 175 200
1.78337 0.227705 8.87 85 178 202
1.79105 0.227448 8.86 82 175 199
1.79872 0.227191 8.85 80 173 197
1.80636 0.226935 8.84 78 171 195
1.81398 0.226678 8.83 76 171 195
1.82158 0.226421 8.82 75 170 194
1.82709 0.225908 8.8 74 171 195
1.83463 0.225651 8.79 74 171 195
1.84425 0.225651 8.79 72 172 195
1.84966 0.225138 8.77 77 177 200
1.85926 0.225138 8.77 78 178 201
1.86673 0.224881 8.76 74 174 197
1.87417 0.224624 8.75 76 176 199
1.8816 0.224368 8.74 76 176 199
1.89116 0.224368 8.74 80 175 199
1.90073 0.224368 8.74 80 175 199
1.9103 0.224368 8.74 78 173 197
1.91986 0.224368 8.74 77 172 196
1.92943 0.224368 8.74 74 171 195
1.939 0.224368 8.74 74 171 195
1.94856 0.224368 8.74 69 169 192
1.95589 0.224111 8.73 69 169 192
1.96545 0.224111 8.73 64 165 191
1.97274 0.223854 8.72 64 165 191
1.98229 0.223854 8.72 62 166 191
1.98955 0.223597 8.71 68 172 197
1.99908 0.223597 8.71 62 172 198
2.00861 0.223597 8.71 57 167 193
2.01815 0.223597 8.71 59 168 197
2.02535 0.223341 8.7 53 162 191
2.03488 0.223341 8.7 47 156 192
2.04675 0.223597 8.71 51 160 196
2.05628 0.223597 8.71 19 141 179
2.06582 0.223597 8.71 20 142 180
2.07535 0.223597 8.71 10 144 189
2.08728 0.223854 8.72 11 145 190
2.09682 0.223854 8.72 7 145 192
2.10878 0.224111 8.73 4 142 189
2.11834 0.224111 8.73 4 138 189
2.1279 0.224111 8.73 3 137 188
2.1399 0.224368 8.74 6 134 186
2.14947 0.224368 8.74 6 134 186
2.16398 0.224881 8.76 6 134 186
2.17604 0.225138 8.77 7 135 187
2.18814 0.225394 8.78 10 138 190
2.20275 0.225908 8.8 9 137 189
2.2149 0.226165 8.81 11 137 189
2.22959 0.226678 8.83 9 135 187
2.2418 0.226935 8.84 5 129 181
2.25402 0.227191 8.85 5 129 181
2.26882 0.227705 8.87 26 132 177
2.2811 0.227962 8.88 12 118 163
1.69021 0.257228 9.61 74 126 157
1.69365 0.256157 9.57 66 150 187
1.70056 0.255622 9.55 60 144 181
1.70743 0.255087 9.53 39 140 179
1.71426 0.254551 9.51 41 142 181
1.72285 0.254284 9.5 35 140 181
1.72778 0.253481 9.47 34 139 180
1.7308 0.25241 9.43 46 143 181
1.73374 0.251339 9.39 63 160 198
1.73473 0.250001 9.34 69 161 193
1.73561 0.248663 9.29 69 161 193
1.73639 0.247324 9.24 73 161 191
1.73516 0.245718 9.18 73 161 191
1.7357 0.24438 9.13 70 158 188
1.73422 0.242774 9.07 77 165 195
1.73838 0.241971 9.04 76 168 195
1.74248 0.241168 9.01 76 168 195
1.74651 0.240365 8.98 77 169 196
1.75242 0.23983 8.96 79 171 198
1.7583 0.239294 8.94 79 171 198
1.76215 0.238491 8.91 80 172 199
1.76991 0.238224 8.9 71 166 190
1.77566 0.237688 8.88 62 157 181
1.78136 0.237153 8.86 76 171 195
1.78903 0.236885 8.85 82 177 201
1.79465 0.23635 8.83 78 173 197
1.80432 0.23635 8.83 76 171 195
1.81193 0.236082 8.82 73 170 194
1.81952 0.235815 8.81 73 170 194
1.82709 0.235547 8.8 71 171 194
1.83255 0.235012 8.78 72 172 195
1.84216 0.235012 8.78 72 172 195
1.84966 0.234744 8.77 72 172 195
1.85714 0.234476 8.76 72 172 195
1.86459 0.234209 8.75 73 173 196
1.87203 0.233941 8.74 74 174 197
1.8816 0.233941 8.74 74 174 197
1.89116 0.233941 8.74 76 173 197
1.90073 0.233941 8.74 76 173 197
1.9103 0.233941 8.74 74 171 195
1.91986 0.233941 8.74 73 170 194
1.92943 0.233941 8.74 69 166 190
1.939 0.233941 8.74 71 168 192
1.94856 0.233941 8.74 69 169 192
1.95589 0.233673 8.73 70 170 193
1.96545 0.233673 8.73 68 169 195
1.975 0.233673 8.73 67 168 194
1.98229 0.233406 8.72 62 166 191
1.98955 0.233138 8.71 61 165 190
1.99908 0.233138 8.71 59 164 191
2.00861 0.233138 8.71 60 165 192
2.01815 0.233138 8.71 65 169 201
2.02768 0.233138 8.71 56 160 192
2.03722 0.233138 8.71 48 152 189
2.04675 0.233138 8.71 54 158 195
2.05628 0.233138 8.71 29 143 183
2.06582 0.233138 8.71 29 143 183
2.07773 0.233406 8.72 15 144 188
2.08728 0.233406 8.72 15 144 188
2.09923 0.233673 8.73 11 144 192
2.10878 0.233673 8.73 10 143 191
2.11834 0.233673 8.73 5 139 190
2.13033 0.233941 8.74 3 137 188
2.1399 0.233941 8.74 1 133 184
2.15193 0.234209 8.75 3 135 186
2.16398 0.234476 8.76 4 132 184
2.17604 0.234744 8.77 7 135 187
2.19063 0.235279 8.79 8 136 188
2.20275 0.235547 8.8 4 132 184
2.2149 0.235815 8.81 8 134 186
2.22707 0.236082 8.82 2 128 180
2.2418 0.236618 8.84 5 124 177
2.25402 0.236885 8.85 5 124 177
2.26626 0.237153 8.86 25 124 170
2.2811 0.237688 8.88 17 116 162
1.68493 0.266919 9.58 73 125 156
1.69011 0.266083 9.55 66 149 189
1.697 0.265526 9.53 60 143 183
1.70385 0.264968 9.51 35 140 181
1.71065 0.264411 9.49 35 140 181
1.71741 0.263854 9.47 37 142 183
1.72596 0.263575 9.46 37 142 183
1.73264 0.263018 9.44 47 148 182
1.73374 0.261625 9.39 58 159 193
1.73473 0.260232 9.34 64 158 190
1.73748 0.259117 9.3 67 161 193
0 0 0 71 159 189
0 0 0 72 160 190
1.7376 0.254659 9.14 72 160 190
1.73614 0.252988 9.08 80 168 198
1.74031 0.252152 9.05 87 175 205
1.74441 0.251316 9.02 75 163 193
1.74845 0.25048 8.99 69 163 190
1.75438 0.249923 8.97 74 168 195
1.76026 0.249366 8.95 74 170 197
1.76413 0.24853 8.92 75 171 198
1.7719 0.248251 8.91 74 170 197
1.77566 0.247415 8.88 67 163 190
1.78136 0.246858 8.86 73 170 194
1.78701 0.246301 8.84 79 176 200
1.79465 0.246022 8.83 76 173 197
1.80228 0.245744 8.82 73 170 194
1.80988 0.245465 8.81 73 170 194
1.81745 0.245186 8.8 73 170 194
1.82293 0.244629 8.78 70 170 193
1.83255 0.244629 8.78 70 170 193
1.84006 0.24435 8.77 70 169 195
1.84755 0.244072 8.76 71 170 196
1.85502 0.243793 8.75 71 170 196
1.86459 0.243793 8.75 73 172 198
1.87203 0.243515 8.74 73 172 198
1.8816 0.243515 8.74 73 172 198
1.89116 0.243515 8.74 72 172 195
1.90073 0.243515 8.74 78 178 201
1.9103 0.243515 8.74 70 170 193
1.91986 0.243515 8.74 69 169 192
1.92943 0.243515 8.74 67 166 192
1.939 0.243515 8.74 66 165 191
1.94856 0.243515 8.74 64 165 191
1.95589 0.243236 8.73 67 168 194
1.96545 0.243236 8.73 67 171 196
1.975 0.243236 8.73 65 169 194
1.98229 0.242957 8.72 61 164 191
1.99183 0.242957 8.72 61 164 191
1.99908 0.242679 8.71 59 164 191
2.00861 0.242679 8.71 59 164 191
2.01815 0.242679 8.71 60 164 196
2.02768 0.242679 8.71 44 148 180
2.03722 0.242679 8.71 49 152 186
2.04675 0.242679 8.71 50 153 187
2.05628 0.242679 8.71 38 149 186
2.06819 0.242957 8.72 31 142 179
2.07773 0.242957 8.72 17 145 186
2.08967 0.243236 8.73 17 145 186
2.09923 0.243236 8.73 18 152 197
2.1112 0.243515 8.74 11 145 190
2.12077 0.243515 8.74 5 138 186
2.13033 0.243515 8.74 3 136 184
2.14235 0.243793 8.75 2 130 182
2.15439 0.244072 8.76 3 131 183
2.16398 0.244072 8.76 3 131 183
2.17853 0.244629 8.78 4 132 184
2.19063 0.244908 8.79 2 130 182
2.20275 0.245186 8.8 2 130 182
2.2149 0.245465 8.81 8 132 184
2.22707 0.245744 8.82 6 130 182
2.23926 0.246022 8.83 11 125 179
2.25402 0.246579 8.85 5 119 173
2.26882 0.247137 8.87 31 119 165
1.67965 0.276544 9.55 69 121 152
1.68657 0.275964 9.53 59 140 180
1.69344 0.275385 9.51 54 135 175
1.69847 0.274517 9.48 31 136 179
1.70705 0.274227 9.47 30 135 178
1.7156 0.273937 9.46 35 142 183
1.72231 0.273358 9.44 45 152 193
1.72713 0.27249 9.41 54 155 189
1.73189 0.271621 9.38 54 155 189
1.73473 0.270463 9.34 60 154 186
0 0 0 59 153 185
1.73827 0.267856 9.25 64 154 186
1.73894 0.266408 9.2 72 162 194
1.7376 0.264671 9.14 74 162 192
1.73614 0.262934 9.08 72 160 190
1.74031 0.262065 9.05 79 167 197
1.74635 0.261486 9.03 71 159 189
1.75039 0.260617 9 66 160 187
1.75633 0.260038 8.98 74 168 195
1.76026 0.259169 8.95 71 170 196
1.7661 0.25859 8.93 72 171 197
1.7719 0.258011 8.91 70 169 195
1.77766 0.257432 8.89 71 170 196
1.78136 0.256563 8.86 74 170 197
1.78701 0.255984 8.84 75 171 198
1.79465 0.255694 8.83 75 171 198
1.80228 0.255405 8.82 73 169 196
1.80782 0.254826 8.8 70 169 195
1.81539 0.254536 8.79 71 170 196
1.82293 0.254246 8.78 71 170 196
1.83046 0.253957 8.77 70 169 195
1.83796 0.253667 8.76 70 169 195
1.84755 0.253667 8.76 71 170 196
1.85502 0.253378 8.75 71 170 196
1.86246 0.253088 8.74 72 171 197
1.87203 0.253088 8.74 72 171 197
1.8816 0.253088 8.74 72 171 197
1.89116 0.253088 8.74 73 172 198
1.90073 0.253088 8.74 66 165 191
1.9103 0.253088 8.74 57 156 182
1.91986 0.253088 8.74 67 166 192
1.92943 0.253088 8.74 67 166 192
1.939 0.253088 8.74 67 166 192
1.94856 0.253088 8.74 65 166 192
1.95589 0.252798 8.73 64 165 191
1.96545 0.252798 8.73 67 171 196
1.975 0.252798 8.73 63 167 192
1.98456 0.252798 8.73 59 165 190
1.99183 0.252509 8.72 59 165 190
2.00138 0.252509 8.72 59 164 191
2.00861 0.252219 8.71 57 162 189
2.01815 0.252219 8.71 55 157 187
2.02768 0.252219 8.71 52 154 184
2.03722 0.252219 8.71 50 152 184
2.04675 0.252219 8.71 53 155 187
2.05864 0.252509 8.72 45 157 192
2.06819 0.252509 8.72 34 146 181
2.07773 0.252509 8.72 17 145 186
2.08967 0.252798 8.73 14 142 183
2.10163 0.253088 8.74 5 139 184
2.1112 0.253088 8.74 3 137 182
2.12077 0.253088 8.74 4 137 185
2.13277 0.253378 8.75 1 134 182
2.14235 0.253378 8.75 0 127 179
2.15439 0.253667 8.76 0 122 174
2.16645 0.253957 8.77 0 124 177
2.17853 0.254246 8.78 0 128 181
2.19063 0.254536 8.79 0 125 178
2.20275 0.254826 8.8 1 129 182
2.21741 0.255405 8.82 13 134 188
2.22959 0.255694 8.83 6 127 181
2.2418 0.255984 8.84 15 118 171
2.25657 0.256563 8.86 11 114 167
2.26882 0.256853 8.87 36 106 150
1.67438 0.286103 9.52 72 122 153
1.68126 0.285502 9.5 50 130 172
1.6881 0.284901 9.48 53 133 175
1.69489 0.2843 9.46 33 134 180
1.70344 0.283999 9.45 32 133 179
1.71197 0.283698 9.44 35 142 185
1.72048 0.283398 9.43 46 153 196
1.7253 0.282496 9.4 53 154 188
1.73005 0.281595 9.37 54 155 189
1.73102 0.280092 9.32 61 155 187
1.73375 0.27889 9.28 62 156 188
1.73639 0.277688 9.24 70 160 192
1.73705 0.276185 9.19 75 165 197
1.7376 0.274683 9.14 74 162 192
1.73614 0.272879 9.08 71 159 189
1.74031 0.271978 9.05 73 161 191
1.74635 0.271377 9.03 72 160 190
1.75039 0.270475 9 63 157 184
1.75633 0.269874 8.98 75 169 196
1.76223 0.269273 8.96 69 168 194
1.76808 0.268672 8.94 71 170 196
1.77389 0.268071 8.92 64 163 189
1.77766 0.267169 8.89 66 165 191
1.78337 0.266568 8.87 71 170 196
1.78903 0.265967 8.85 72 171 197
1.79465 0.265366 8.83 76 175 201
1.80228 0.265066 8.82 69 168 194
1.80782 0.264465 8.8 69 168 194
1.81539 0.264164 8.79 69 168 194
1.82293 0.263864 8.78 68 169 195
1.83046 0.263563 8.77 68 169 195
1.83796 0.263263 8.76 67 168 194
1.84544 0.262962 8.75 68 169 195
1.85502 0.262962 8.75 69 170 196
1.86246 0.262662 8.74 70 171 197
1.87203 0.262662 8.74 70 171 197
1.8816 0.262662 8.74 70 171 197
1.89116 0.262662 8.74 73 172 198
1.90073 0.262662 8.74 67 166 192
1.9103 0.262662 8.74 67 163 190
1.91986 0.262662 8.74 78 174 201
1.92943 0.262662 8.74 72 171 197
1.939 0.262662 8.74 69 168 194
1.94634 0.262361 8.73 64 165 191
1.95589 0.262361 8.73 62 163 189
1.96545 0.262361 8.73 59 165 190
1.97274 0.26206 8.72 61 167 192
1.98229 0.26206 8.72 58 166 191
1.99183 0.26206 8.72 56 164 189
1.99908 0.26176 8.71 57 163 188
2.00861 0.26176 8.71 54 160 185
2.01815 0.26176 8.71 58 161 188
2.02768 0.26176 8.71 56 159 186
2.03722 0.26176 8.71 55 157 187
2.0491 0.26206 8.72 55 157 187
2.05864 0.26206 8.72 47 161 196
2.06819 0.26206 8.72 35 149 184
2.08012 0.262361 8.73 13 141 182
2.09207 0.262662 8.74 13 141 182
2.10163 0.262662 8.74 8 137 186
2.1112 0.262662 8.74 8 137 186
2.12077 0.262662 8.74 7 136 185
2.13277 0.262962 8.75 4 133 182
2.14235 0.262962 8.75 2 130 182
2.15439 0.263263 8.76 0 125 177
2.16645 0.263563 8.77 0 125 178
2.17853 0.263864 8.78 1 129 182
2.19063 0.264164 8.79 0 125 178
2.20275 0.264465 8.8 1 127 180
2.21741 0.265066 8.82 21 135 189
2.22959 0.265366 8.83 11 125 179
2.24433 0.265967 8.85 32 118 169
2.25657 0.266268 8.86 16 102 153
1.6691 0.295596 9.49 72 122 153
1.67772 0.295285 9.48 54 131 174
1.68454 0.294662 9.46 56 133 176
1.69131 0.294039 9.44 34 135 181
1.69984 0.293727 9.43 34 135 181
1.70653 0.293104 9.41 28 135 178
1.71501 0.292793 9.4 36 143 186
1.72163 0.29217 9.38 52 157 191
1.72451 0.290924 9.34 51 156 190
1.72916 0.28999 9.31 59 156 187
0 0 0 62 159 190
1.73263 0.287186 9.22 67 160 189
1.73516 0.28594 9.18 68 161 190
1.7357 0.284383 9.13 70 161 190
1.73614 0.282825 9.08 69 160 189
1.74223 0.282202 9.06 70 161 190
1.74635 0.281268 9.03 73 164 193
1.75234 0.280645 9.01 71 164 193
1.75829 0.280022 8.99 71 164 193
1.7642 0.279399 8.97 63 161 189
1.77006 0.278776 8.95 66 164 192
1.77588 0.278153 8.93 64 162 190
1.78166 0.27753 8.91 65 163 191
1.78538 0.276596 8.88 67 165 193
1.79105 0.275973 8.86 71 169 197
1.79669 0.27535 8.84 73 171 199
1.80228 0.274727 8.82 67 165 193
1.80988 0.274415 8.81 67 165 193
1.81539 0.273792 8.79 67 165 193
1.82293 0.273481 8.78 67 167 195
1.83046 0.273169 8.77 65 165 193
1.83796 0.272858 8.76 63 164 190
1.84544 0.272546 8.75 60 161 187
1.8529 0.272235 8.74 65 166 192
1.86246 0.272235 8.74 68 169 195
1.86989 0.271924 8.73 68 169 195
1.87944 0.271924 8.73 69 170 196
1.89116 0.272235 8.74 72 171 197
1.89856 0.271924 8.73 71 170 196
1.9103 0.272235 8.74 67 166 192
1.91986 0.272235 8.74 74 173 199
1.92943 0.272235 8.74 71 170 196
1.939 0.272235 8.74 69 168 194
1.94634 0.271924 8.73 64 165 191
1.95589 0.271924 8.73 63 164 190
1.96545 0.271924 8.73 60 163 190
1.97274 0.271612 8.72 62 165 192
1.98229 0.271612 8.72 58 166 191
1.98955 0.271301 8.71 57 165 190
1.99908 0.271301 8.71 58 164 189
2.00861 0.271301 8.71 57 163 188
2.01815 0.271301 8.71 59 162 189
2.02768 0.271301 8.71 59 162 189
2.03722 0.271301 8.71 61 165 195
2.0491 0.271612 8.72 56 160 190
2.05864 0.271612 8.72 40 160 196
2.07056 0.271924 8.73 34 154 190
2.08012 0.271924 8.73 16 145 189
2.09207 0.272235 8.74 11 140 184
2.10163 0.272235 8.74 7 136 185
2.11362 0.272546 8.75 8 137 186
2.12319 0.272546 8.75 7 136 185
2.13277 0.272546 8.75 4 133 182
2.1448 0.272858 8.76 6 132 184
2.15685 0.273169 8.77 2 128 180
2.16645 0.273169 8.77 0 123 179
2.18101 0.273792 8.79 7 130 186
2.19312 0.274104 8.8 16 135 189
2.20526 0.274415 8.81 2 121 175
2.21993 0.275038 8.83 37 131 185
2.23212 0.27535 8.84 18 112 166
2.24433 0.275661 8.85 35 97 145
1.66734 0.305669 9.48 72 122 153
1.67418 0.305024 9.46 51 128 171
1.68097 0.304379 9.44 56 133 176
1.68952 0.304057 9.43 34 135 181
1.69623 0.303412 9.41 35 136 182
1.70472 0.303089 9.4 31 138 181
1.71136 0.302444 9.38 29 136 179
1.71612 0.301477 9.35 44 148 185
1.72082 0.30051 9.32 51 155 192
1.72359 0.29922 9.28 61 155 187
0 0 0 62 156 188
1.72887 0.296641 9.2 67 160 189
1.73138 0.295351 9.16 66 159 188
1.7338 0.294061 9.12 67 160 189
1.73614 0.292771 9.08 67 160 189
1.74031 0.291804 9.05 67 160 189
1.74635 0.291159 9.03 69 162 191
1.75428 0.290837 9.02 76 174 202
1.76025 0.290192 9 59 157 185
1.76616 0.289547 8.98 49 147 175
1.77204 0.288902 8.96 56 154 182
1.77787 0.288257 8.94 61 161 189
1.78365 0.287612 8.92 62 162 190
1.7894 0.286967 8.9 65 163 191
1.79307 0.286 8.87 64 162 190
1.79872 0.285355 8.85 56 154 182
1.80432 0.28471 8.83 64 162 190
1.80988 0.284066 8.81 65 163 191
1.81745 0.283743 8.8 66 164 192
1.82293 0.283098 8.78 64 164 192
1.83046 0.282776 8.77 64 164 192
1.83796 0.282453 8.76 63 163 191
1.84544 0.282131 8.75 63 163 191
1.8529 0.281808 8.74 67 166 192
1.86246 0.281808 8.74 67 166 192
1.86989 0.281486 8.73 69 168 194
1.87944 0.281486 8.73 69 168 194
1.889 0.281486 8.73 69 168 194
1.89856 0.281486 8.73 70 169 195
1.9103 0.281808 8.74 66 162 189
1.91767 0.281486 8.73 64 160 187
1.92943 0.281808 8.74 65 163 191
1.93678 0.281486 8.73 66 164 192
1.94634 0.281486 8.73 63 163 191
1.95589 0.281486 8.73 63 163 191
1.9632 0.281164 8.72 57 162 189
1.97274 0.281164 8.72 60 165 192
1.98229 0.281164 8.72 58 165 192
1.98955 0.280841 8.71 55 162 189
1.99908 0.280841 8.71 57 162 189
2.00861 0.280841 8.71 60 165 192
2.01815 0.280841 8.71 59 164 191
2.02768 0.280841 8.71 60 165 192
2.03955 0.281164 8.72 46 152 182
2.0491 0.281164 8.72 47 153 183
2.05864 0.281164 8.72 23 143 179
2.07056 0.281486 8.73 20 140 176
2.0825 0.281808 8.74 15 146 190
2.09446 0.282131 8.75 10 141 185
2.10404 0.282131 8.75 1 134 182
2.11362 0.282131 8.75 3 136 184
2.12319 0.282131 8.75 9 136 185
2.13521 0.282453 8.76 4 131 180
2.1448 0.282453 8.76 0 122 175
2.15685 0.282776 8.77 0 120 173
2.16892 0.283098 8.78 0 116 173
2.18101 0.283421 8.79 0 108 165
2.19312 0.283743 8.8 11 106 163
2.20776 0.284388 8.82 7 102 159
2.21993 0.28471 8.83 31 101 152
2.23464 0.285355 8.85 31 101 152
1.66558 0.315719 9.47 71 119 155
1.67418 0.315386 9.46 52 130 171
1.68097 0.314719 9.44 55 133 174
1.68952 0.314386 9.43 35 135 179
1.69443 0.313386 9.4 37 137 181
1.70291 0.313052 9.39 32 138 183
1.70953 0.312386 9.37 29 135 180
1.71429 0.311385 9.34 42 146 183
1.71897 0.310385 9.31 48 152 189
1.71987 0.308718 9.26 52 149 180
1.7244 0.307718 9.23 50 147 178
1.72699 0.306385 9.19 57 152 181
1.7276 0.304718 9.14 62 157 186
1.7319 0.303717 9.11 64 159 188
1.73422 0.302384 9.07 64 159 188
1.74031 0.301717 9.05 56 153 184
1.74635 0.30105 9.03 44 141 172
1.75428 0.300717 9.02 47 144 175
1.76025 0.30005 9 65 162 193
1.76813 0.299717 8.99 65 162 193
1.77402 0.29905 8.97 60 157 188
1.77986 0.298383 8.95 63 161 189
1.78565 0.297716 8.93 64 162 190
1.79141 0.29705 8.91 65 163 191
1.79712 0.296383 8.89 64 162 190
1.80075 0.295383 8.86 65 160 189
1.80636 0.294716 8.84 65 160 189
1.81193 0.294049 8.82 67 162 191
1.81745 0.293382 8.8 66 161 190
1.82501 0.293049 8.79 55 153 181
1.83046 0.292382 8.77 62 160 188
1.83796 0.292049 8.76 63 161 189
1.84544 0.291715 8.75 60 158 186
1.8529 0.291382 8.74 65 164 190
1.86246 0.291382 8.74 71 170 196
1.86989 0.291049 8.73 73 169 196
1.87944 0.291049 8.73 68 164 191
1.889 0.291049 8.73 71 165 192
1.89856 0.291049 8.73 68 162 189
1.90811 0.291049 8.73 67 161 188
1.91767 0.291049 8.73 67 161 188
1.92722 0.291049 8.73 69 163 190
1.93678 0.291049 8.73 68 162 189
1.94634 0.291049 8.73 61 161 189
1.95589 0.291049 8.73 57 157 185
1.9632 0.290715 8.72 52 158 188
1.97274 0.290715 8.72 55 161 191
1.98001 0.290382 8.71 57 163 193
1.98955 0.290382 8.71 54 160 190
1.99908 0.290382 8.71 54 160 190
2.00861 0.290382 8.71 65 171 201
2.01815 0.290382 8.71 58 164 194
2.02768 0.290382 8.71 57 163 193
2.03955 0.290715 8.72 53 164 195
2.0491 0.290715 8.72 40 151 182
2.06101 0.291049 8.73 30 153 188
2.07056 0.291049 8.73 24 147 182
2.0825 0.291382 8.74 3 133 179
2.09446 0.291715 8.75 6 136 182
2.10404 0.291715 8.75 4 133 182
2.11603 0.292049 8.76 6 135 184
2.12562 0.292049 8.76 9 136 185
2.13521 0.292049 8.76 12 139 188
2.14725 0.292382 8.77 0 113 165
2.15931 0.292716 8.78 0 120 172
2.17139 0.293049 8.79 0 111 169
2.18349 0.293382 8.8 0 98 156
2.19561 0.293716 8.81 20 97 154
2.21026 0.294383 8.83 25 102 159
1.66558 0.326093 9.47 94 142 178
1.67418 0.325748 9.46 62 140 181
1.68097 0.325059 9.44 56 134 175
1.68952 0.324715 9.43 39 134 177
1.69443 0.323682 9.4 39 134 177
1.70291 0.323338 9.39 29 136 179
1.70771 0.322305 9.36 29 136 179
1.71245 0.321272 9.33 46 149 188
1.71528 0.319894 9.29 44 147 186
1.71802 0.318517 9.25 54 151 182
1.72067 0.31714 9.21 56 153 184
1.72323 0.315762 9.17 58 153 182
1.72571 0.314385 9.13 56 151 180
1.7281 0.313007 9.09 54 148 180
1.73231 0.311974 9.06 59 153 185
1.73838 0.311286 9.04 58 155 186
1.74635 0.310941 9.03 65 162 193
1.75234 0.310253 9.01 62 161 192
1.76025 0.309908 9 58 157 188
1.76813 0.309564 8.99 57 156 187
1.77402 0.308875 8.97 58 157 188
1.78185 0.308531 8.96 60 159 190
1.78765 0.307842 8.94 62 161 192
1.79342 0.307154 8.92 68 163 192
1.79914 0.306465 8.9 66 161 190
1.80482 0.305776 8.88 64 159 188
1.80841 0.304743 8.85 64 159 188
1.81398 0.304055 8.83 67 162 191
1.82158 0.30371 8.82 66 161 190
1.82709 0.303022 8.8 66 161 190
1.83255 0.302333 8.78 68 163 192
1.84006 0.301989 8.77 71 169 197
1.84544 0.3013 8.75 56 154 182
1.85502 0.3013 8.75 62 158 185
1.86246 0.300956 8.74 67 163 190
1.87203 0.300956 8.74 70 164 191
1.87944 0.300611 8.73 69 163 190
1.889 0.300611 8.73 74 163 191
1.89856 0.300611 8.73 78 167 195
1.90811 0.300611 8.73 74 164 189
1.91767 0.300611 8.73 74 164 189
1.92722 0.300611 8.73 71 164 188
1.93678 0.300611 8.73 64 157 181
1.94634 0.300611 8.73 59 158 184
1.95365 0.300267 8.72 59 158 184
1.9632 0.300267 8.72 53 157 187
1.97048 0.299922 8.71 56 160 190
1.98001 0.299922 8.71 52 161 190
1.98955 0.299922 8.71 50 159 188
1.99908 0.299922 8.71 50 159 188
2.00861 0.299922 8.71 50 159 188
2.01815 0.299922 8.71 56 165 194
2.02768 0.299922 8.71 37 146 175
2.03955 0.300267 8.72 41 154 186
2.0491 0.300267 8.72 48 161 193
2.06101 0.300611 8.73 28 152 190
2.07293 0.300956 8.74 17 141 179
2.0825 0.300956 8.74 0 124 170
2.09446 0.3013 8.75 7 133 179
2.10644 0.301644 8.76 5 132 181
2.11603 0.301644 8.76 5 132 181
2.12562 0.301644 8.76 5 132 181
2.13765 0.301989 8.77 10 137 186
2.14969 0.302333 8.78 0 120 172
2.16176 0.302677 8.79 2 128 180
2.17386 0.303022 8.8 16 119 172
2.18597 0.303366 8.81 1 104 157
2.2006 0.304055 8.83 40 103 155
1.66558 0.336466 9.47 97 147 183
1.67241 0.335755 9.45 55 136 176
1.68097 0.3354 9.44 54 135 175
1.68772 0.334689 9.42 35 135 179
1.69443 0.333979 9.4 29 129 173
1.70109 0.333268 9.38 22 131 175
1.70589 0.332202 9.35 24 133 177
1.71061 0.331136 9.32 40 146 184
1.71343 0.329715 9.28 45 151 189
1.71616 0.328294 9.24 56 155 188
1.7188 0.326873 9.2 52 151 184
1.72135 0.325451 9.16 56 150 182
1.72382 0.32403 9.12 56 150 182
1.7281 0.322964 9.09 52 144 176
1.7304 0.321543 9.05 52 144 176
1.73838 0.321188 9.04 52 146 180
1.74441 0.320477 9.02 60 154 188
1.75234 0.320122 9.01 58 157 190
1.76025 0.319767 9 56 155 188
1.76813 0.319411 8.99 53 155 187
1.77599 0.319056 8.98 55 157 189
1.78383 0.318701 8.97 58 157 188
1.78965 0.31799 8.95 60 159 190
1.79543 0.31728 8.93 64 162 190
1.80116 0.316569 8.91 62 160 188
1.80685 0.315858 8.89 61 156 185
1.81045 0.314793 8.86 62 157 186
1.81604 0.314082 8.84 64 159 188
1.82365 0.313727 8.83 65 160 189
1.82916 0.313016 8.81 65 163 191
1.83463 0.312305 8.79 66 164 192
1.84216 0.31195 8.78 63 161 189
1.84755 0.31124 8.76 62 160 188
1.85714 0.31124 8.76 65 161 188
1.86459 0.310884 8.75 66 162 189
1.87203 0.310529 8.74 70 162 189
1.8816 0.310529 8.74 70 162 189
1.89116 0.310529 8.74 74 164 189
1.89856 0.310174 8.73 80 170 195
1.90811 0.310174 8.73 74 162 187
1.91767 0.310174 8.73 75 163 188
1.92722 0.310174 8.73 73 163 188
1.93678 0.310174 8.73 70 160 185
1.94634 0.310174 8.73 61 157 184
1.95365 0.309818 8.72 58 154 181
1.9632 0.309818 8.72 54 157 184
1.97274 0.309818 8.72 56 159 186
1.98001 0.309463 8.71 54 161 188
1.98955 0.309463 8.71 51 158 185
1.99908 0.309463 8.71 49 158 187
2.00861 0.309463 8.71 48 157 186
2.01815 0.309463 8.71 47 156 185
2.03001 0.309818 8.72 45 154 183
2.03955 0.309818 8.72 38 148 181
2.05145 0.310174 8.73 44 154 187
2.06101 0.310174 8.73 31 148 187
2.07293 0.310529 8.74 21 138 177
2.08488 0.310884 8.75 5 126 173
2.09446 0.310884 8.75 11 132 179
2.10644 0.31124 8.76 9 131 181
2.11603 0.31124 8.76 9 131 181
2.12805 0.311595 8.77 8 130 180
2.13765 0.311595 8.77 7 129 179
2.15214 0.312305 8.79 3 125 175
2.16422 0.312661 8.8 6 128 178
2.17633 0.313016 8.81 28 118 170
2.19093 0.313727 8.83 9 99 151
1.66383 0.346472 9.46 87 139 175
1.67241 0.346106 9.45 48 136 175
1.67919 0.345374 9.43 47 135 174
1.68593 0.344641 9.41 30 135 178
1.69263 0.343909 9.39 27 132 175
1.69928 0.343176 9.37 23 132 176
1.70406 0.342077 9.34 20 129 173
1.70878 0.340979 9.31 28 133 174
1.71158 0.339514 9.27 41 146 187
1.7143 0.338049 9.23 51 152 186
1.7188 0.33695 9.2 47 148 182
1.72135 0.335485 9.16 53 147 181
1.72382 0.33402 9.12 56 150 184
1.7281 0.332921 9.09 58 150 184
1.73231 0.331822 9.06 58 150 184
1.73838 0.33109 9.04 58 148 182
1.74441 0.330357 9.02 57 147 181
1.75234 0.329991 9.01 44 141 174
1.76025 0.329625 9 52 149 182
1.76813 0.329259 8.99 50 154 186
1.77599 0.328892 8.98 51 155 187
1.78383 0.328526 8.97 54 156 186
1.79165 0.32816 8.96 54 156 186
1.79744 0.327427 8.94 58 158 186
1.80318 0.326695 8.92 58 158 186
1.80888 0.325962 8.9 59 157 185
1.81454 0.32523 8.88 60 158 186
1.82015 0.324497 8.86 63 161 189
1.82572 0.323765 8.84 65 163 191
1.83124 0.323032 8.82 60 163 190
1.83881 0.322666 8.81 60 163 190
1.84425 0.321934 8.79 59 162 189
1.84966 0.321201 8.77 59 162 189
1.85714 0.320835 8.76 64 163 189
1.86459 0.320469 8.75 64 163 189
1.87417 0.320469 8.75 68 162 189
1.88375 0.320469 8.75 67 161 188
1.89333 0.320469 8.75 68 160 187
1.90073 0.320102 8.74 60 152 179
1.9103 0.320102 8.74 57 147 172
1.91986 0.320102 8.74 65 155 180
1.92943 0.320102 8.74 66 159 183
1.93678 0.319736 8.73 66 159 183
1.94634 0.319736 8.73 73 170 194
1.95589 0.319736 8.73 68 165 189
1.9632 0.31937 8.72 55 156 182
1.97274 0.31937 8.72 57 158 184
1.98229 0.31937 8.72 54 159 186
1.99183 0.31937 8.72 53 158 185
1.99908 0.319004 8.71 51 158 185
2.01092 0.31937 8.72 50 157 184
2.02047 0.31937 8.72 48 154 184
2.03001 0.31937 8.72 46 152 182
2.04189 0.319736 8.73 42 153 184
2.05145 0.319736 8.73 40 151 182
2.06337 0.320102 8.74 38 150 190
2.07293 0.320102 8.74 32 144 184
2.08488 0.320469 8.75 33 144 193
2.09685 0.320835 8.76 20 131 180
2.10644 0.320835 8.76 15 130 181
2.11845 0.321201 8.77 15 130 181
2.12805 0.321201 8.77 11 131 181
2.14008 0.321567 8.78 9 129 179
2.15459 0.3223 8.8 16 130 178
2.16668 0.322666 8.81 15 129 177
2.1788 0.323032 8.82 41 117 165
1.66207 0.356457 9.45 84 139 174
1.67064 0.35608 9.44 43 135 174
1.67563 0.354949 9.41 40 132 171
1.68414 0.354571 9.4 23 133 175
1.69082 0.353817 9.38 22 132 174
1.69565 0.352685 9.35 20 131 175
1.70041 0.351554 9.32 19 130 174
1.70511 0.350422 9.29 19 131 173
1.70974 0.349291 9.26 32 144 186
1.7143 0.348159 9.23 39 146 182
1.71506 0.346273 9.18 40 147 183
1.71947 0.345141 9.15 46 147 181
1.72382 0.34401 9.12 48 149 183
1.7262 0.342501 9.08 56 149 185
1.73231 0.341746 9.06 57 150 186
1.73838 0.340992 9.04 58 149 185
1.74441 0.340238 9.02 56 147 183
1.75234 0.33986 9.01 52 145 181
1.76025 0.339483 9 53 146 182
1.76813 0.339106 8.99 50 149 182
1.77599 0.338729 8.98 49 148 181
