ply
format ascii 1.0
comment Created by Open3D
element vertex 1474
property double x
property double y
property double z
property uchar red
property uchar green
property uchar blue
end_header
0 -0 0 219 204 184
0 -0 0 220 205 185
1.65636 -0.559643 9.72 220 205 185
1.667 -0.559643 9.72 220 205 185
1.67764 -0.559643 9.72 221 206 186
1.68828 -0.559643 9.72 222 207 187
1.69717 -0.559067 9.71 224 208 191
1.70604 -0.558491 9.7 230 214 197
1.71488 -0.557915 9.69 242 223 207
1.72549 -0.557915 9.69 243 224 208
1.7361 -0.557915 9.69 248 228 209
1.7467 -0.557915 9.69 241 221 202
1.75731 -0.557915 9.69 228 208 189
1.76792 -0.557915 9.69 231 211 192
1.77852 -0.557915 9.69 210 194 182
1.78913 -0.557915 9.69 201 185 173
1.79788 -0.557339 9.68 207 196 183
1.80848 -0.557339 9.68 202 191 178
1.81719 -0.556764 9.67 200 189 176
1.82589 -0.556188 9.66 204 193 180
1.83456 -0.555612 9.65 202 193 182
1.8413 -0.554461 9.63 202 193 182
1.84799 -0.553309 9.61 200 194 182
1.85465 -0.552158 9.59 198 192 180
1.86125 -0.551006 9.57 197 192 182
1.86782 -0.549855 9.55 197 192 182
1.87434 -0.548703 9.53 190 191 183
1.88279 -0.548127 9.52 194 195 187
1.88725 -0.5464 9.49 166 190 196
1.89163 -0.544673 9.46 149 173 179
2.10963 -0.491702 8.54 138 167 184
2.11898 -0.491702 8.54 162 191 208
2.12832 -0.491702 8.54 192 202 197
2.13767 -0.491702 8.54 187 197 192
2.14953 -0.492278 8.55 192 194 183
2.15889 -0.492278 8.55 183 185 174
2.16825 -0.492278 8.55 182 184 173
2.17761 -0.492278 8.55 181 183 172
2.18953 -0.492854 8.56 178 178 172
2.19633 -0.492278 8.55 169 169 163
2.20827 -0.492854 8.56 162 160 160
2.22023 -0.49343 8.57 161 159 159
0 -0 0 158 155 152
0 -0 0 156 153 150
0 -0 0 157 152 147
2.54227 -0.555612 9.65 152 147 142
2.55548 -0.556188 9.66 144 141 138
2.57403 -0.557915 9.69 148 145 142
2.5873 -0.558491 9.7 153 150 147
2.61399 -0.561946 9.76 146 143 140
2.63812 -0.564824 9.81 152 151 148
2.66776 -0.568855 9.88 159 158 155
0 -0 0 161 160 157
2.73838 -0.579219 10.06 174 173 170
2.77126 -0.583825 10.14 139 142 145
1.76794 -0.643884 11.4 146 138 143
1.7773 -0.642754 11.38 202 194 199
1.78818 -0.642189 11.37 196 188 181
1.79746 -0.64106 11.35 199 191 184
1.80669 -0.63993 11.33 200 191 178
0 -0 0 200 191 178
0 -0 0 200 190 174
0 -0 0 204 194 178
0 -0 0 209 199 183
0 -0 0 210 200 184
0 -0 0 212 200 183
0 -0 0 213 201 184
0 -0 0 215 201 184
0 -0 0 215 201 184
1.65636 -0.548996 9.72 220 204 187
1.66357 -0.547866 9.7 220 204 187
1.67591 -0.548431 9.71 223 204 188
1.6848 -0.547866 9.7 224 205 189
1.69367 -0.547301 9.69 224 205 189
1.70428 -0.547301 9.69 221 202 186
1.71312 -0.546736 9.68 232 214 195
1.72371 -0.546736 9.68 238 220 201
1.73431 -0.546736 9.68 255 241 221
1.7449 -0.546736 9.68 255 253 233
1.7555 -0.546736 9.68 255 251 231
1.76609 -0.546736 9.68 255 244 224
1.77669 -0.546736 9.68 235 215 201
1.78729 -0.546736 9.68 233 213 199
1.79788 -0.546736 9.68 227 211 199
1.80848 -0.546736 9.68 219 203 191
1.81531 -0.545607 9.66 200 189 176
1.824 -0.545042 9.65 202 191 178
1.83266 -0.544477 9.64 204 193 180
1.83939 -0.543348 9.62 204 193 180
1.84799 -0.542783 9.61 204 195 184
1.85465 -0.541653 9.59 204 195 184
1.86125 -0.540523 9.57 198 194 182
1.86586 -0.538829 9.54 201 197 185
1.87434 -0.538264 9.53 188 194 193
1.88081 -0.537135 9.51 187 193 192
1.88526 -0.53544 9.48 138 172 190
2.1165 -0.481783 8.53 137 178 207
2.12832 -0.482348 8.54 175 190 196
2.13767 -0.482348 8.54 173 188 194
2.14702 -0.482348 8.54 189 192 184
2.15889 -0.482913 8.55 174 177 169
2.16572 -0.482348 8.54 178 180 169
2.18016 -0.483478 8.56 180 182 171
2.18953 -0.483478 8.56 180 181 173
2.19633 -0.482913 8.55 175 176 168
2.20827 -0.483478 8.56 168 167 164
2.22023 -0.484042 8.57 164 163 160
0 -0 0 172 166 164
0 -0 0 160 154 152
0 -0 0 159 154 149
0 -0 0 163 158 153
2.55548 -0.545607 9.66 161 156 151
2.57137 -0.546736 9.68 160 155 150
2.5873 -0.547866 9.7 158 156 150
2.61399 -0.551255 9.76 156 154 148
2.63812 -0.554079 9.81 163 161 155
2.66506 -0.557468 9.87 161 159 153
2.69484 -0.561421 9.94 164 161 158
2.73022 -0.566505 10.03 177 174 171
2.75759 -0.569894 10.09 147 145 151
1.75864 -0.628073 11.34 163 155 160
1.76949 -0.62752 11.33 202 194 199
1.78189 -0.62752 11.33 189 183 176
1.79113 -0.626412 11.31 197 191 184
1.80032 -0.625304 11.29 198 192 178
0 -0 0 198 192 178
0 -0 0 205 197 181
0 -0 0 212 204 188
0 -0 0 210 200 184
0 -0 0 209 199 183
0 -0 0 209 199 183
0 -0 0 208 198 182
0 -0 0 212 197 182
0 -0 0 213 198 183
1.65295 -0.537241 9.7 217 198 182
1.66185 -0.536687 9.69 222 203 187
1.67246 -0.536687 9.69 222 203 187
1.68306 -0.536687 9.69 223 204 188
1.69192 -0.536133 9.68 224 205 189
1.70252 -0.536133 9.68 224 205 189
1.71135 -0.535579 9.67 228 208 189
1.72193 -0.535579 9.67 233 213 194
1.73072 -0.535026 9.66 242 218 196
1.7413 -0.535026 9.66 249 225 203
1.75368 -0.535579 9.67 255 235 213
1.76427 -0.535579 9.67 255 242 220
1.77485 -0.535579 9.67 241 220 204
1.78729 -0.536133 9.68 234 213 197
1.79788 -0.536133 9.68 229 212 197
1.80661 -0.535579 9.67 230 213 198
1.81531 -0.535026 9.66 231 216 201
1.824 -0.534472 9.65 218 203 188
1.83076 -0.533364 9.63 213 203 187
1.83939 -0.53281 9.62 208 198 182
1.84799 -0.532256 9.61 205 197 181
1.85271 -0.530595 9.58 204 196 180
1.86125 -0.530041 9.57 194 192 180
1.86586 -0.528379 9.54 199 197 185
1.87434 -0.527825 9.53 180 194 197
1.87883 -0.526164 9.5 152 166 169
2.12583 -0.47244 8.53 150 173 189
2.13517 -0.47244 8.53 171 194 210
2.14702 -0.472994 8.54 187 194 190
2.15637 -0.472994 8.54 176 183 179
2.16825 -0.473547 8.55 173 176 168
2.17761 -0.473547 8.55 174 177 169
2.18441 -0.472994 8.54 176 176 170
2.19633 -0.473547 8.55 180 180 174
2.20569 -0.473547 8.55 166 166 160
2.21764 -0.474101 8.56 161 161 155
0 -0 0 166 161 156
0 -0 0 161 156 151
0 -0 0 161 156 151
0 -0 0 161 156 151
0 -0 0 163 158 153
2.57137 -0.536133 9.68 163 158 153
2.58463 -0.536687 9.69 158 156 150
2.61131 -0.54001 9.75 161 159 153
2.63543 -0.54278 9.8 162 160 154
2.65965 -0.545549 9.85 162 160 154
2.68941 -0.549426 9.92 164 161 158
2.71933 -0.553303 9.99 175 172 169
2.74939 -0.55718 10.06 153 146 155
1.75088 -0.612937 11.29 180 172 177
1.76012 -0.611852 11.27 200 192 197
1.77088 -0.611309 11.26 195 190 180
1.78162 -0.610766 11.25 196 191 181
1.79234 -0.610223 11.24 198 192 178
0 -0 0 200 194 180
0 -0 0 204 196 180
0 -0 0 204 196 180
0 -0 0 207 197 181
0 -0 0 208 198 182
0 -0 0 208 198 182
0 -0 0 209 199 183
0 -0 0 213 198 183
0 -0 0 213 198 183
0 -0 0 217 201 184
1.66185 -0.526073 9.69 220 204 187
1.67246 -0.526073 9.69 222 203 187
1.68133 -0.52553 9.68 222 203 187
1.69192 -0.52553 9.68 223 204 188
1.70076 -0.524987 9.67 224 205 189
1.70958 -0.524444 9.66 226 206 187
1.72015 -0.524444 9.66 225 205 186
1.73072 -0.524444 9.66 241 215 195
1.7413 -0.524444 9.66 238 212 192
1.75187 -0.524444 9.66 248 219 200
1.76244 -0.524444 9.66 255 226 207
1.77302 -0.524444 9.66 242 219 201
1.78359 -0.524444 9.66 234 211 193
1.79602 -0.524987 9.67 226 207 191
1.80474 -0.524444 9.66 228 209 193
1.81343 -0.523901 9.65 226 212 195
1.82211 -0.523359 9.64 222 208 191
1.83076 -0.522816 9.63 219 207 190
1.83939 -0.522273 9.62 220 208 191
1.84415 -0.520644 9.59 213 204 186
1.85271 -0.520101 9.58 214 205 187
1.85931 -0.519015 9.56 208 206 194
1.86391 -0.517387 9.53 214 212 200
1.87434 -0.517387 9.53 176 193 202
2.13517 -0.463096 8.53 124 159 181
2.14451 -0.463096 8.53 172 181 185
2.15637 -0.463639 8.54 171 180 184
2.16572 -0.463639 8.54 162 168 161
2.17506 -0.463639 8.54 166 172 165
2.18697 -0.464182 8.55 174 173 170
2.19633 -0.464182 8.55 171 170 167
2.20569 -0.464182 8.55 168 165 162
2.21505 -0.464182 8.55 162 159 156
2.22701 -0.464725 8.56 163 158 153
0 -0 0 161 156 151
0 -0 0 161 156 151
0 -0 0 163 158 153
0 -0 0 168 163 158
0 -0 0 171 166 161
2.58196 -0.52553 9.68 158 156 150
2.60327 -0.527702 9.72 161 159 153
2.62467 -0.529873 9.76 162 160 154
2.65155 -0.533131 9.82 162 160 154
2.67586 -0.535845 9.87 171 168 165
2.703 -0.539103 9.93 180 177 174
2.73026 -0.54236 9.99 142 135 144
1.73237 -0.598443 11.25 140 136 149
1.74313 -0.597911 11.24 200 191 193
1.75231 -0.596847 11.22 191 182 184
1.76145 -0.595783 11.2 193 186 176
1.77212 -0.595251 11.19 197 190 180
1.78277 -0.594719 11.18 200 192 176
1.7918 -0.593655 11.16 201 193 177
0 -0 0 202 194 178
0 -0 0 202 194 178
0 -0 0 206 196 180
0 -0 0 208 198 182
0 -0 0 209 199 183
0 -0 0 209 199 183
0 -0 0 213 198 183
1.64064 -0.515459 9.69 214 199 184
1.65124 -0.515459 9.69 221 201 187
1.66185 -0.515459 9.69 222 202 188
1.67246 -0.515459 9.69 222 202 188
1.68133 -0.514927 9.68 221 201 187
1.69192 -0.514927 9.68 221 201 187
1.699 -0.513863 9.66 222 202 188
1.70958 -0.513863 9.66 226 205 189
1.71837 -0.513331 9.65 226 205 189
1.72893 -0.513331 9.65 239 216 198
1.73949 -0.513331 9.65 232 209 191
1.75006 -0.513331 9.65 237 211 191
1.76062 -0.513331 9.65 236 210 190
1.77118 -0.513331 9.65 223 198 180
1.78359 -0.513863 9.66 228 203 185
1.79417 -0.513863 9.66 227 207 188
1.80287 -0.513331 9.65 227 207 188
1.81343 -0.513331 9.65 228 208 189
1.82022 -0.512267 9.63 227 207 188
1.82886 -0.511735 9.62 221 206 186
1.83748 -0.511203 9.61 222 207 187
1.84223 -0.509607 9.58 219 205 188
1.85078 -0.509076 9.57 218 204 187
1.85542 -0.50748 9.54 215 211 204
1.86391 -0.506948 9.53 224 220 213
1.8704 -0.505884 9.51 171 190 204
2.13517 -0.453753 8.53 106 149 180
2.14451 -0.453753 8.53 159 176 185
2.15384 -0.453753 8.53 165 182 191
2.16318 -0.453753 8.53 169 175 175
2.17506 -0.454285 8.54 167 173 173
2.18441 -0.454285 8.54 174 172 172
2.19376 -0.454285 8.54 171 169 169
2.20569 -0.454817 8.55 168 165 162
2.21505 -0.454817 8.55 166 163 160
2.22701 -0.455349 8.56 160 155 150
0 -0 0 161 156 151
0 -0 0 163 158 153
0 -0 0 164 159 154
0 -0 0 166 161 156
0 -0 0 167 162 157
2.58196 -0.514927 9.68 162 160 154
2.6006 -0.516523 9.71 159 157 151
2.62467 -0.519183 9.76 164 162 156
2.64615 -0.52131 9.8 168 166 160
2.67044 -0.52397 9.85 170 167 164
2.69755 -0.527162 9.91 189 186 183
2.72206 -0.529822 9.96 126 121 130
1.72621 -0.584036 11.21 158 154 167
1.73693 -0.583515 11.2 201 192 193
1.74606 -0.582473 11.18 189 180 181
1.75673 -0.581952 11.17 193 183 174
1.76737 -0.581431 11.16 195 185 176
1.7764 -0.580389 11.14 193 185 169
1.78698 -0.579868 11.13 197 189 173
0 -0 0 202 194 178
0 -0 0 202 194 178
0 -0 0 206 196 180
0 -0 0 208 198 182
0 -0 0 209 199 183
0 -0 0 208 198 182
0 -0 0 213 198 183
1.64233 -0.505366 9.7 214 199 184
1.65124 -0.504845 9.69 220 203 188
1.66185 -0.504845 9.69 219 202 187
1.67246 -0.504845 9.69 218 198 184
1.68133 -0.504324 9.68 218 198 184
1.69192 -0.504324 9.68 219 199 185
1.699 -0.503282 9.66 221 201 187
1.70781 -0.502761 9.65 222 203 187
1.71837 -0.502761 9.65 222 203 187
1.72893 -0.502761 9.65 228 207 191
1.73949 -0.502761 9.65 220 199 183
1.74824 -0.50224 9.64 229 203 188
1.7588 -0.50224 9.64 234 208 193
1.77118 -0.502761 9.65 235 211 196
1.78175 -0.502761 9.65 233 209 194
1.79231 -0.502761 9.65 229 205 190
1.801 -0.50224 9.64 228 204 189
1.80968 -0.501719 9.63 225 204 188
1.81833 -0.501198 9.62 225 204 188
1.82696 -0.500677 9.61 223 207 190
1.83365 -0.499635 9.59 224 208 191
1.8403 -0.498593 9.57 214 200 183
1.84691 -0.497551 9.55 215 201 184
1.85347 -0.496509 9.53 207 202 197
1.85999 -0.495467 9.51 213 208 203
2.14451 -0.444409 8.53 143 163 181
2.15384 -0.444409 8.53 157 177 195
2.16318 -0.444409 8.53 168 176 178
2.17252 -0.444409 8.53 168 176 178
2.18185 -0.444409 8.53 173 174 171
2.19376 -0.44493 8.54 171 172 169
2.20311 -0.44493 8.54 178 172 170
2.21505 -0.445451 8.55 167 161 159
2.2244 -0.445451 8.55 167 161 159
2.23638 -0.445972 8.56 163 157 155
0 -0 0 163 158 153
0 -0 0 164 159 154
0 -0 0 166 161 156
0 -0 0 168 163 158
0 -0 0 165 163 157
2.59792 -0.505366 9.7 169 167 161
2.62198 -0.507971 9.75 172 170 164
2.64075 -0.509534 9.78 169 167 161
2.66501 -0.512139 9.83 175 172 169
2.68938 -0.514744 9.88 176 173 170
1.72005 -0.569717 11.17 173 169 182
1.72917 -0.568697 11.15 205 195 193
1.73982 -0.568187 11.14 195 185 183
1.75201 -0.568187 11.14 193 187 175
1.76104 -0.567167 11.12 192 186 174
1.77161 -0.566657 11.11 194 186 170
0 -0 0 199 191 175
0 -0 0 201 193 177
0 -0 0 202 194 178
0 -0 0 206 196 180
0 -0 0 207 197 181
0 -0 0 208 198 182
0 -0 0 209 199 183
0 -0 0 213 198 183
1.64233 -0.494741 9.7 207 192 177
0 -0 0 215 198 183
1.66185 -0.494231 9.69 220 203 188
1.67073 -0.493721 9.68 217 197 183
1.68306 -0.494231 9.69 218 198 184
1.69018 -0.493211 9.67 218 198 184
1.699 -0.492701 9.66 219 199 185
1.70781 -0.492191 9.65 219 199 185
1.71659 -0.491681 9.64 222 202 188
1.72714 -0.491681 9.64 227 205 191
1.73589 -0.49117 9.63 221 199 185
1.74643 -0.49117 9.63 227 203 188
1.75697 -0.49117 9.63 225 201 186
1.76751 -0.49117 9.63 239 215 200
1.77805 -0.49117 9.63 233 209 194
1.78859 -0.49117 9.63 226 205 189
1.79727 -0.49066 9.62 226 205 189
1.8078 -0.49066 9.62 219 200 184
1.81644 -0.49015 9.61 219 200 184
1.82315 -0.48913 9.59 229 213 196
1.83174 -0.48862 9.58 214 198 181
1.83838 -0.4876 9.56 214 200 183
1.84498 -0.48658 9.54 215 201 184
1.85347 -0.48607 9.53 199 196 193
1.85804 -0.48454 9.5 198 195 192
2.15384 -0.435066 8.53 147 175 197
2.16318 -0.435066 8.53 172 182 184
2.17252 -0.435066 8.53 173 183 185
2.18185 -0.435066 8.53 173 174 171
2.19376 -0.435576 8.54 171 172 169
2.20311 -0.435576 8.54 175 172 169
2.21246 -0.435576 8.54 168 165 162
2.2244 -0.436086 8.55 166 160 158
2.23376 -0.436086 8.55 164 158 156
2.24575 -0.436596 8.56 164 159 154
0 -0 0 168 163 158
0 -0 0 167 162 157
0 -0 0 171 166 161
0 -0 0 168 166 160
2.59792 -0.494741 9.7 168 166 160
2.61929 -0.496781 9.74 170 168 162
2.64075 -0.498821 9.78 169 167 161
2.65959 -0.500351 9.81 180 179 176
2.68122 -0.502391 9.85 152 151 148
1.71543 -0.555984 11.14 169 165 176
1.72607 -0.555485 11.13 184 174 172
1.73513 -0.554487 11.11 192 182 180
1.74729 -0.554487 11.11 197 188 177
1.75787 -0.553988 11.1 197 188 177
1.76683 -0.55299 11.08 200 191 178
1.77896 -0.55299 11.08 202 193 180
0 -0 0 201 193 177
0 -0 0 201 193 177
0 -0 0 202 194 178
0 -0 0 204 196 180
0 -0 0 208 198 182
0 -0 0 208 198 182
0 -0 0 209 199 183
1.64402 -0.484615 9.71 207 197 181
0 -0 0 208 193 178
1.66357 -0.484116 9.7 212 197 182
1.67246 -0.483617 9.69 216 199 184
1.68133 -0.483118 9.68 216 199 184
1.69018 -0.482618 9.67 216 198 186
1.699 -0.482119 9.66 222 204 192
1.70781 -0.48162 9.65 222 204 192
1.71659 -0.481121 9.64 222 204 192
1.72535 -0.480622 9.63 225 204 193
1.73589 -0.480622 9.63 224 203 192
1.74643 -0.480622 9.63 229 209 195
1.75515 -0.480123 9.62 230 210 196
1.76568 -0.480123 9.62 237 215 201
1.77621 -0.480123 9.62 232 210 196
1.78674 -0.480123 9.62 233 213 199
1.7954 -0.479624 9.61 238 218 204
1.80404 -0.479125 9.6 230 214 197
1.81077 -0.478127 9.58 228 212 195
1.81935 -0.477628 9.57 226 212 195
1.826 -0.476629 9.55 213 199 182
1.83453 -0.47613 9.54 216 203 188
1.83917 -0.474633 9.51 210 197 182
1.84764 -0.474134 9.5 197 203 203
1.85021 -0.472138 9.46 187 193 193
2.15132 -0.425223 8.52 118 154 179
2.16318 -0.425722 8.53 173 182 186
2.17252 -0.425722 8.53 176 185 189
2.18185 -0.425722 8.53 173 172 169
2.19119 -0.425722 8.53 171 170 167
2.20311 -0.426221 8.54 175 169 167
2.21246 -0.426221 8.54 173 167 165
2.2244 -0.426721 8.55 166 160 158
2.23376 -0.426721 8.55 164 158 156
2.24575 -0.42722 8.56 165 159 157
0 -0 0 168 162 160
0 -0 0 166 161 156
0 -0 0 166 161 156
0 -0 0 165 160 155
2.59792 -0.484116 9.7 170 165 160
2.6166 -0.485613 9.73 172 167 162
2.63535 -0.48711 9.76 172 167 162
2.65417 -0.488608 9.79 181 180 177
2.67305 -0.490105 9.82 148 147 144
1.71081 -0.542318 11.11 168 170 180
1.72142 -0.54183 11.1 180 172 170
1.73044 -0.540853 11.08 190 182 180
1.74257 -0.540853 11.08 195 189 177
1.75153 -0.539877 11.06 197 191 179
1.76045 -0.538901 11.04 199 193 179
1.77253 -0.538901 11.04 197 191 177
0 -0 0 199 191 175
0 -0 0 201 193 177
0 -0 0 202 194 178
0 -0 0 202 194 178
0 -0 0 207 197 181
0 -0 0 206 196 180
0 -0 0 207 197 181
1.64572 -0.474467 9.72 209 199 183
1.65465 -0.473979 9.71 210 200 184
1.66357 -0.473491 9.7 210 200 184
1.67246 -0.473003 9.69 212 198 186
1.68133 -0.472514 9.68 213 199 187
1.69018 -0.472026 9.67 212 198 186
1.699 -0.471538 9.66 215 201 189
1.70781 -0.47105 9.65 222 204 192
1.71837 -0.47105 9.65 223 205 193
1.72535 -0.470074 9.63 226 205 194
1.73589 -0.470074 9.63 228 207 196
1.74462 -0.469586 9.62 233 213 199
1.75515 -0.469586 9.62 230 210 196
1.76384 -0.469097 9.61 229 209 195
1.77436 -0.469097 9.61 230 210 196
1.78302 -0.468609 9.6 232 212 198
1.79166 -0.468121 9.59 236 216 202
1.80028 -0.467633 9.58 235 216 200
1.80888 -0.467145 9.57 230 211 195
1.81555 -0.466169 9.55 224 210 193
1.82409 -0.465681 9.54 219 205 188
1.82876 -0.464216 9.51 216 207 194
1.83337 -0.462752 9.48 209 200 187
1.83791 -0.461287 9.45 188 203 209
2.16064 -0.415891 8.52 148 156 163
2.17252 -0.416379 8.53 165 173 180
2.18185 -0.416379 8.53 176 173 170
2.19119 -0.416379 8.53 173 170 167
2.20311 -0.416867 8.54 174 168 166
2.21246 -0.416867 8.54 177 171 169
2.2244 -0.417355 8.55 168 162 160
2.23376 -0.417355 8.55 164 158 156
2.24575 -0.417843 8.56 167 159 157
0 -0 0 172 164 162
0 -0 0 167 160 155
0 -0 0 167 160 155
0 -0 0 163 156 151
2.59792 -0.473491 9.7 172 165 160
2.61391 -0.474467 9.72 173 168 163
2.63265 -0.475931 9.75 174 169 164
2.64875 -0.476908 9.77 178 177 174
2.66761 -0.478372 9.8 153 152 149
1.69712 -0.529671 11.1 168 170 180
1.70619 -0.528717 11.08 181 183 193
1.71677 -0.528239 11.07 184 178 176
1.7242 -0.526808 11.04 189 183 181
1.73628 -0.526808 11.04 193 188 178
1.7452 -0.525854 11.02 195 190 180
1.75567 -0.525376 11.01 198 192 180
0 -0 0 195 189 177
0 -0 0 202 193 180
0 -0 0 202 193 180
0 -0 0 202 194 178
0 -0 0 202 194 178
0 -0 0 204 196 180
0 -0 0 205 197 181
1.63844 -0.464774 9.74 205 197 181
1.64741 -0.464297 9.73 206 198 182
1.65636 -0.46382 9.72 206 198 182
1.667 -0.46382 9.72 206 198 182
1.67418 -0.462866 9.7 208 197 184
1.68306 -0.462388 9.69 209 198 185
1.69192 -0.461911 9.68 211 197 185
1.70076 -0.461434 9.67 206 192 180
1.70958 -0.460957 9.66 219 203 191
1.71837 -0.46048 9.65 224 208 196
1.72714 -0.460003 9.64 228 210 198
1.73589 -0.459525 9.63 231 213 201
1.74462 -0.459048 9.62 237 220 205
1.75332 -0.458571 9.61 229 212 197
1.76384 -0.458571 9.61 228 211 196
1.77251 -0.458094 9.6 227 210 195
1.78117 -0.457617 9.59 226 209 194
1.78979 -0.457139 9.58 230 213 198
1.7984 -0.456662 9.57 234 217 202
1.8051 -0.455708 9.55 229 212 197
1.81365 -0.455231 9.54 220 207 192
1.81835 -0.453799 9.51 225 212 197
1.823 -0.452368 9.48 220 217 207
1.82757 -0.450936 9.45 210 207 197
1.83013 -0.449027 9.41 162 189 201
2.16064 -0.406558 8.52 149 166 175
2.17252 -0.407035 8.53 161 178 187
2.18185 -0.407035 8.53 177 174 171
2.19119 -0.407035 8.53 179 176 173
2.20311 -0.407513 8.54 175 169 167
2.21246 -0.407513 8.54 178 172 170
2.2244 -0.40799 8.55 165 159 157
2.23376 -0.40799 8.55 164 158 156
2.24312 -0.40799 8.55 167 159 157
2.25512 -0.408467 8.56 173 165 163
2.26449 -0.408467 8.56 172 165 160
0 -0 0 174 167 162
2.5793 -0.461434 9.67 180 173 168
2.59524 -0.462388 9.69 187 180 175
2.61391 -0.46382 9.72 175 173 167
2.62725 -0.464297 9.73 171 169 163
2.64333 -0.465252 9.75 161 161 161
2.66216 -0.466683 9.78 131 131 131
1.691 -0.515648 11.06 159 159 169
1.70157 -0.515181 11.05 184 184 194
1.71056 -0.514249 11.03 180 177 174
1.71795 -0.51285 11 187 184 181
1.72842 -0.512384 10.99 193 188 178
1.7357 -0.510985 10.96 194 189 179
1.7461 -0.510519 10.95 195 191 179
0 -0 0 193 189 177
0 -0 0 200 194 180
0 -0 0 200 194 180
0 -0 0 200 191 178
0 -0 0 201 192 179
0 -0 0 202 194 178
1.63447 -0.45597 9.78 204 196 180
1.64012 -0.454572 9.75 204 196 180
1.6491 -0.454106 9.74 204 196 180
1.65806 -0.453639 9.73 205 196 183
1.66871 -0.453639 9.73 206 197 184
1.67764 -0.453173 9.72 207 198 185
1.6848 -0.452241 9.7 206 197 184
1.69192 -0.451308 9.68 210 199 186
1.70252 -0.451308 9.68 217 206 193
1.70958 -0.450376 9.66 221 205 193
1.71837 -0.449909 9.65 225 209 197
1.72893 -0.449909 9.65 228 213 198
1.73589 -0.448977 9.63 229 214 199
1.74462 -0.448511 9.62 228 213 198
1.75332 -0.448045 9.61 227 212 197
1.76384 -0.448045 9.61 218 203 188
1.77067 -0.447112 9.59 217 202 187
1.77931 -0.446646 9.58 222 207 192
1.78793 -0.44618 9.57 220 205 190
1.79652 -0.445713 9.56 217 202 187
1.80321 -0.444781 9.54 214 199 184
1.81175 -0.444315 9.53 218 207 194
1.81453 -0.44245 9.49 213 202 189
1.81723 -0.440585 9.45 204 206 200
1.81983 -0.43872 9.41 206 208 202
1.82236 -0.436855 9.37 151 188 205
2.16064 -0.397226 8.52 130 154 167
2.16997 -0.397226 8.52 151 175 188
2.18185 -0.397692 8.53 174 172 172
2.19119 -0.397692 8.53 183 181 181
2.20053 -0.397692 8.53 181 176 171
2.21246 -0.398158 8.54 178 173 168
2.2244 -0.398624 8.55 176 169 164
2.23376 -0.398624 8.55 158 151 146
2.24312 -0.398624 8.55 158 150 148
2.25512 -0.399091 8.56 173 165 163
2.26449 -0.399091 8.56 181 173 166
0 -0 0 175 167 160
2.5793 -0.450842 9.67 181 175 168
2.59524 -0.451774 9.69 187 181 174
2.61122 -0.452707 9.71 173 171 165
2.62725 -0.453639 9.73 166 164 158
2.64333 -0.454572 9.75 151 151 151
1.68794 -0.502622 11.04 163 163 173
1.69849 -0.502167 11.03 171 171 181
1.70746 -0.501256 11.01 180 177 174
1.71326 -0.499435 10.97 187 184 181
1.72213 -0.498525 10.95 193 188 178
1.72936 -0.497159 10.92 193 188 178
0 -0 0 196 190 178
0 -0 0 197 191 179
0 -0 0 196 190 178
0 -0 0 199 193 181
0 -0 0 200 191 178
0 -0 0 200 191 178
0 -0 0 201 193 177
1.63614 -0.445713 9.79 202 194 178
1.64181 -0.444347 9.76 204 196 180
1.6508 -0.443892 9.75 205 197 181
1.66147 -0.443892 9.75 206 198 182
1.66871 -0.442981 9.73 206 198 182
1.67936 -0.442981 9.73 208 200 184
1.68828 -0.442526 9.72 209 201 185
1.69542 -0.441616 9.7 207 199 183
1.70428 -0.44116 9.69 207 199 183
1.71312 -0.440705 9.68 212 199 184
1.72015 -0.439794 9.66 216 203 188
1.72893 -0.439339 9.65 219 206 191
1.73769 -0.438884 9.64 219 206 191
1.74462 -0.437973 9.62 217 204 189
1.75332 -0.437518 9.61 218 205 190
1.76384 -0.437518 9.61 214 199 184
1.77067 -0.436608 9.59 218 203 188
1.77931 -0.436152 9.58 220 205 190
1.78793 -0.435697 9.57 219 204 189
1.79464 -0.434786 9.55 216 203 188
1.80321 -0.434331 9.54 215 202 187
1.80795 -0.432965 9.51 213 204 193
1.81262 -0.4316 9.48 208 199 188
1.81338 -0.429323 9.43 186 196 198
1.81403 -0.427047 9.38 181 191 193
2.16997 -0.387893 8.52 141 173 189
2.18185 -0.388349 8.53 166 170 169
2.19119 -0.388349 8.53 164 168 167
2.20053 -0.388349 8.53 167 162 157
2.21246 -0.388804 8.54 171 166 161
2.2218 -0.388804 8.54 171 166 161
2.23376 -0.389259 8.55 163 158 153
2.24312 -0.389259 8.55 151 144 139
2.25248 -0.389259 8.55 169 162 157
2.26449 -0.389714 8.56 187 176 170
0 -0 0 177 166 160
2.5793 -0.44025 9.67 177 169 162
2.59256 -0.440705 9.68 178 170 163
2.60853 -0.441616 9.7 172 170 164
2.62185 -0.442071 9.71 182 180 174
2.6379 -0.442981 9.73 151 151 151
1.68336 -0.489196 11.01 152 154 164
1.69541 -0.489196 11.01 171 173 183
1.70281 -0.487864 10.98 189 186 183
1.71014 -0.486531 10.95 186 183 180
1.71741 -0.485198 10.92 190 185 175
0 -0 0 190 185 175
1.72856 -0.481643 10.84 189 185 173
1.7324 -0.479421 10.79 196 192 180
0 -0 0 193 189 177
0 -0 0 196 192 180
0 -0 0 198 192 178
0 -0 0 198 192 178
0 -0 0 198 192 178
1.63948 -0.435878 9.81 200 194 180
1.64349 -0.434101 9.77 204 196 180
1.65249 -0.433656 9.76 204 196 180
1.66317 -0.433656 9.76 205 197 181
1.67214 -0.433212 9.75 207 199 183
1.67936 -0.432323 9.73 208 200 184
1.68828 -0.431879 9.72 204 196 180
1.69717 -0.431435 9.71 201 193 177
1.70604 -0.430991 9.7 207 199 183
1.71312 -0.430102 9.68 209 199 183
1.72015 -0.429213 9.66 215 205 189
1.72893 -0.428769 9.65 214 204 188
1.73769 -0.428325 9.64 214 204 188
1.74643 -0.42788 9.63 215 202 187
1.75515 -0.427436 9.62 215 202 187
1.76384 -0.426992 9.61 216 203 188
1.77067 -0.426103 9.59 215 202 187
1.77931 -0.425659 9.58 213 200 185
1.78419 -0.424326 9.55 216 203 188
1.79464 -0.424326 9.55 211 201 185
1.80132 -0.423437 9.53 210 200 184
1.80604 -0.422104 9.5 203 200 190
1.80497 -0.419438 9.44 201 198 188
1.80569 -0.417217 9.39 171 190 199
1.80436 -0.414551 9.33 149 168 177
2.17252 -0.379005 8.53 132 172 192
2.18185 -0.379005 8.53 171 180 178
2.19119 -0.379005 8.53 166 175 173
2.20053 -0.379005 8.53 173 171 165
2.21246 -0.379449 8.54 172 170 164
2.2218 -0.379449 8.54 170 165 160
2.23376 -0.379894 8.55 165 160 155
2.24312 -0.379894 8.55 162 155 150
2.25512 -0.380338 8.56 170 163 158
0 -0 0 177 170 160
0 -0 0 177 170 160
2.5793 -0.429658 9.67 178 171 161
2.59256 -0.430102 9.68 177 170 160
2.60853 -0.430991 9.7 173 172 164
2.61915 -0.430991 9.7 187 186 178
2.6379 -0.432323 9.73 137 141 141
1.68336 -0.477136 11.01 171 173 183
1.69233 -0.47627 10.99 176 178 188
1.70126 -0.475403 10.97 189 185 185
1.70702 -0.47367 10.93 187 183 183
0 -0 0 183 177 170
1.71669 -0.469769 10.84 189 183 176
1.72218 -0.468036 10.8 184 180 168
1.72758 -0.466302 10.76 196 192 180
0 -0 0 196 190 178
0 -0 0 196 190 178
0 -0 0 196 190 176
0 -0 0 197 191 177
0 -0 0 198 192 178
1.64115 -0.425566 9.82 199 193 179
1.64517 -0.423832 9.78 202 193 180
1.65588 -0.423832 9.78 202 193 180
1.66317 -0.422966 9.76 204 195 182
1.67214 -0.422532 9.75 206 197 184
1.68109 -0.422099 9.74 204 195 182
1.69001 -0.421666 9.73 187 178 165
1.69892 -0.421232 9.72 190 179 166
1.70604 -0.420365 9.7 206 195 182
1.71488 -0.419932 9.69 210 196 184
1.72371 -0.419499 9.68 209 195 183
1.73072 -0.418632 9.66 208 194 182
1.73949 -0.418199 9.65 209 195 183
1.74643 -0.417332 9.63 212 196 184
1.75515 -0.416899 9.62 213 197 185
1.76384 -0.416465 9.61 212 198 186
1.77067 -0.415598 9.59 213 199 187
1.77931 -0.415165 9.58 212 198 186
1.78793 -0.414732 9.57 213 199 187
1.79464 -0.413865 9.55 208 199 186
1.79943 -0.412565 9.52 206 197 184
1.80224 -0.410831 9.48 193 195 189
1.80115 -0.408231 9.42 193 195 189
1.798 -0.405198 9.35 154 183 195
2.17252 -0.369662 8.53 129 176 201
2.18185 -0.369662 8.53 169 181 183
2.19376 -0.370095 8.54 155 167 169
2.20311 -0.370095 8.54 166 168 162
2.21246 -0.370095 8.54 166 168 162
2.2244 -0.370528 8.55 169 167 161
2.23376 -0.370528 8.55 166 164 158
2.24312 -0.370528 8.55 164 159 154
2.25512 -0.370962 8.56 167 162 157
0 -0 0 174 169 159
2.56606 -0.418632 9.66 176 171 161
2.5793 -0.419065 9.67 176 171 161
2.59256 -0.419499 9.68 175 170 160
2.60585 -0.419932 9.69 173 172 164
2.61915 -0.420365 9.7 187 186 178
1.6803 -0.464232 10.99 163 165 175
1.69079 -0.463809 10.98 173 175 185
1.69816 -0.462542 10.95 168 164 164
0 -0 0 192 188 188
1.71112 -0.459585 10.88 193 187 180
1.71511 -0.457473 10.83 191 185 178
1.72059 -0.455783 10.79 190 186 174
1.72437 -0.453671 10.74 194 190 178
1.71188 -0.447335 10.59 194 190 178
1.68278 -0.436775 10.34 193 189 177
0 -0 0 193 189 175
0 -0 0 194 190 176
1.64036 -0.417344 9.88 196 190 176
1.64282 -0.415232 9.83 198 192 178
1.64517 -0.41312 9.78 199 193 179
1.65588 -0.41312 9.78 203 197 183
1.66658 -0.41312 9.78 200 194 180
1.67386 -0.412275 9.76 200 194 180
1.68281 -0.411853 9.75 201 192 179
1.69001 -0.411008 9.73 188 179 166
1.69892 -0.410585 9.72 187 176 163
1.70604 -0.40974 9.7 196 185 172
1.71488 -0.409318 9.69 198 184 172
1.72371 -0.408896 9.68 205 191 179
1.73072 -0.408051 9.66 209 195 183
1.73949 -0.407628 9.65 211 197 185
1.74643 -0.406784 9.63 216 202 190
1.75515 -0.406361 9.62 212 198 186
1.76384 -0.405939 9.61 211 197 185
1.77067 -0.405094 9.59 212 198 186
1.77931 -0.404672 9.58 208 197 184
1.78793 -0.404249 9.57 207 196 183
1.79464 -0.403404 9.55 200 194 182
1.80132 -0.402559 9.53 203 197 185
1.80224 -0.400447 9.48 191 197 196
1.79923 -0.39749 9.41 182 188 187
1.79607 -0.394534 9.34 134 168 186
2.18441 -0.360741 8.54 147 161 169
2.19376 -0.360741 8.54 154 168 176
2.20569 -0.361163 8.55 162 167 163
2.21505 -0.361163 8.55 165 170 166
2.2244 -0.361163 8.55 175 173 167
2.23376 -0.361163 8.55 165 163 157
2.24312 -0.361163 8.55 165 160 155
2.25512 -0.361585 8.56 167 162 157
0 -0 0 172 168 161
2.56606 -0.408051 9.66 179 175 168
2.5793 -0.408473 9.67 184 181 171
2.59524 -0.409318 9.69 173 170 160
2.60585 -0.409318 9.69 177 174 171
2.61915 -0.40974 9.7 163 160 157
1.67877 -0.451782 10.98 161 163 173
1.69079 -0.451782 10.98 176 178 188
1.69816 -0.450548 10.95 180 176 177
1.70546 -0.449313 10.92 191 187 188
1.70955 -0.447256 10.87 193 188 183
1.71194 -0.444787 10.81 191 186 181
1.71899 -0.443553 10.78 191 186 176
1.72276 -0.441496 10.73 191 186 176
1.71026 -0.435324 10.58 194 190 178
1.68441 -0.42586 10.35 194 190 178
0 -0 0 195 191 179
0 -0 0 196 192 180
1.64534 -0.407756 9.91 196 192 178
1.64616 -0.405287 9.85 196 192 178
1.64854 -0.40323 9.8 197 193 179
1.65588 -0.402407 9.78 201 197 183
1.66658 -0.402407 9.78 198 194 180
1.67386 -0.401584 9.76 197 193 179
1.68281 -0.401173 9.75 199 193 181
1.69001 -0.40035 9.73 195 189 177
1.69892 -0.399938 9.72 198 189 178
1.70604 -0.399115 9.7 201 192 181
1.71488 -0.398704 9.69 200 191 180
1.72371 -0.398293 9.68 201 192 181
1.73072 -0.39747 9.66 207 196 185
1.73949 -0.397058 9.65 208 197 186
1.74643 -0.396235 9.63 213 199 189
1.75515 -0.395824 9.62 209 195 185
1.76384 -0.395412 9.61 207 196 185
1.77067 -0.394589 9.59 206 195 184
1.77931 -0.394178 9.58 200 191 180
1.78793 -0.393766 9.57 198 189 178
1.79464 -0.392944 9.55 195 190 180
1.80132 -0.392121 9.53 205 200 190
1.80414 -0.390475 9.49 186 195 199
0 -0 0 183 192 196
1.79607 -0.384303 9.34 117 157 183
2.18441 -0.351386 8.54 131 144 157
2.19376 -0.351386 8.54 159 172 185
2.20569 -0.351798 8.55 161 161 161
2.21505 -0.351798 8.55 174 174 174
2.2244 -0.351798 8.55 162 160 154
2.23638 -0.352209 8.56 162 160 154
2.24312 -0.351798 8.55 165 161 154
2.25512 -0.352209 8.56 165 161 154
0 -0 0 170 166 159
2.56606 -0.39747 9.66 184 180 173
2.58196 -0.398293 9.68 184 180 173
2.59256 -0.398293 9.68 175 171 164
2.60585 -0.398704 9.69 172 172 172
1.67877 -0.439755 10.98 169 171 181
1.68925 -0.439355 10.97 173 175 185
1.69816 -0.438554 10.95 171 169 170
1.70233 -0.436551 10.9 189 187 188
1.70955 -0.435349 10.87 180 178 172
0 -0 0 179 177 171
1.71899 -0.431745 10.78 191 185 178
1.71955 -0.428941 10.71 189 183 176
1.71188 -0.424135 10.59 190 185 175
1.69417 -0.416926 10.41 194 189 179
0 -0 0 193 187 175
0 -0 0 190 184 172
1.65033 -0.398102 9.94 199 193 181
0 -0 0 199 193 181
1.65022 -0.392896 9.81 199 193 181
1.65757 -0.392095 9.79 200 194 182
1.66658 -0.391694 9.78 202 196 184
1.67386 -0.390893 9.76 199 193 181
1.68281 -0.390493 9.75 199 193 181
1.69001 -0.389692 9.73 199 193 181
1.69892 -0.389291 9.72 199 193 181
1.70604 -0.38849 9.7 200 194 182
1.71488 -0.38809 9.69 202 193 182
1.72371 -0.387689 9.68 202 193 182
1.73072 -0.386888 9.66 202 193 182
1.73949 -0.386488 9.65 204 195 184
1.74643 -0.385687 9.63 206 195 184
1.75515 -0.385286 9.62 206 195 184
1.76384 -0.384886 9.61 201 192 181
1.77067 -0.384085 9.59 202 193 182
1.77931 -0.383684 9.58 198 192 180
1.78793 -0.383284 9.57 197 191 179
1.79464 -0.382483 9.55 194 188 181
1.80321 -0.382082 9.54 190 184 177
1.80414 -0.38008 9.49 174 186 196
0 -0 0 159 171 181
0 -0 0 109 155 183
2.18441 -0.342032 8.54 116 128 143
2.19633 -0.342432 8.55 152 164 179
2.20569 -0.342432 8.55 164 163 160
2.21764 -0.342833 8.56 162 161 158
2.22701 -0.342833 8.56 165 161 154
2.23638 -0.342833 8.56 165 161 154
2.24575 -0.342833 8.56 166 160 153
2.25775 -0.343233 8.57 183 177 170
0 -0 0 193 189 182
2.56606 -0.386888 9.66 184 180 173
2.57663 -0.386888 9.66 184 180 173
2.59256 -0.387689 9.68 175 171 164
2.60316 -0.387689 9.68 163 169 169
1.67724 -0.427338 10.97 173 177 182
1.68771 -0.426949 10.96 173 177 182
1.6966 -0.42617 10.94 173 173 173
1.70233 -0.424612 10.9 185 185 185
1.70797 -0.423053 10.86 180 178 172
1.71194 -0.421106 10.81 176 174 168
0 -0 0 182 177 167
1.72276 -0.417989 10.73 183 178 168
1.71511 -0.413315 10.61 188 182 170
1.70394 -0.407861 10.47 195 189 177
0 -0 0 193 187 175
0 -0 0 192 186 174
0 -0 0 197 191 179
0 -0 0 199 193 181
1.65022 -0.38215 9.81 198 192 180
1.65757 -0.381371 9.79 198 192 180
1.66488 -0.380592 9.77 199 193 181
1.67214 -0.379813 9.75 200 194 182
1.68109 -0.379424 9.74 198 192 180
1.69001 -0.379034 9.73 200 194 182
1.69892 -0.378644 9.72 202 193 182
1.70604 -0.377865 9.7 202 193 182
1.71488 -0.377476 9.69 201 192 181
1.72371 -0.377086 9.68 201 192 181
1.73072 -0.376307 9.66 202 193 182
1.73949 -0.375918 9.65 202 193 182
1.74643 -0.375138 9.63 202 193 182
1.75515 -0.374749 9.62 202 193 182
1.76384 -0.374359 9.61 201 192 181
1.77251 -0.37397 9.6 200 191 180
1.77931 -0.373191 9.58 196 189 179
1.78979 -0.373191 9.58 197 190 180
1.79652 -0.372412 9.56 191 186 181
1.80321 -0.371632 9.54 189 184 179
1.80604 -0.370074 9.5 170 183 196
0 -0 0 164 177 190
2.18697 -0.333067 8.55 102 114 129
2.19633 -0.333067 8.55 149 161 176
2.20827 -0.333456 8.56 163 162 159
2.21764 -0.333456 8.56 163 162 159
2.22961 -0.333846 8.57 166 162 155
2.23899 -0.333846 8.57 163 159 152
2.24837 -0.333846 8.57 155 151 144
2.26038 -0.334236 8.58 164 160 153
0 -0 0 183 177 170
2.5634 -0.375918 9.65 187 181 174
2.57663 -0.376307 9.66 192 191 183
2.58988 -0.376697 9.67 168 167 159
2.60316 -0.377086 9.68 155 164 162
1.67724 -0.415322 10.97 171 175 180
1.68617 -0.414565 10.95 176 180 185
1.69505 -0.413808 10.93 181 182 179
1.70233 -0.412672 10.9 178 179 176
1.70955 -0.411536 10.87 178 176 170
0 -0 0 173 171 165
1.72059 -0.408507 10.79 162 156 144
1.72437 -0.406614 10.74 179 173 161
1.71996 -0.402829 10.64 193 184 173
1.71208 -0.398285 10.52 195 186 175
0 -0 0 197 188 175
0 -0 0 197 188 175
0 -0 0 195 186 173
0 -0 0 198 189 176
1.65022 -0.371405 9.81 202 193 180
1.65757 -0.370648 9.79 197 188 175
1.66658 -0.370269 9.78 198 189 178
1.67214 -0.369133 9.75 198 189 178
1.68281 -0.369133 9.75 199 190 179
1.69001 -0.368376 9.73 201 192 181
1.69892 -0.367997 9.72 201 192 181
1.70604 -0.36724 9.7 201 192 181
1.71488 -0.366862 9.69 200 191 180
1.72371 -0.366483 9.68 199 190 179
1.73072 -0.365726 9.66 200 191 180
1.73949 -0.365347 9.65 201 192 181
1.74824 -0.364969 9.64 199 193 181
1.75697 -0.36459 9.63 198 192 180
1.76568 -0.364211 9.62 197 191 179
1.77436 -0.363833 9.61 192 186 174
1.78117 -0.363076 9.59 191 185 178
1.78979 -0.362697 9.58 193 187 180
1.7984 -0.362318 9.57 188 187 184
1.8051 -0.361561 9.55 190 189 186
1.80795 -0.360047 9.51 157 174 188
1.80879 -0.358154 9.46 150 167 181
2.18697 -0.323701 8.55 108 123 137
2.19633 -0.323701 8.55 149 164 178
2.20827 -0.32408 8.56 168 169 166
2.22023 -0.324459 8.57 162 163 160
2.23221 -0.324837 8.58 164 163 155
2.2416 -0.324837 8.58 156 155 147
2.25099 -0.324837 8.58 148 144 137
2.26302 -0.325216 8.59 159 155 148
0 -0 0 182 176 169
2.5634 -0.365347 9.65 191 185 178
2.57396 -0.365347 9.65 186 182 175
2.5872 -0.365726 9.66 157 153 146
1.67571 -0.402938 10.96 174 178 183
1.68617 -0.402571 10.95 169 173 178
1.6966 -0.402203 10.94 172 173 170
1.70233 -0.400733 10.9 174 175 172
1.70955 -0.39963 10.87 192 188 181
1.71669 -0.398527 10.84 158 154 147
1.72377 -0.397424 10.81 151 142 131
0 -0 0 193 184 173
1.72804 -0.393012 10.69 197 186 175
1.72347 -0.389336 10.59 186 175 164
1.70557 -0.382718 10.41 193 184 173
0 -0 0 193 184 173
1.66527 -0.368748 10.03 194 185 174
1.64951 -0.362865 9.87 194 185 174
1.65022 -0.360659 9.81 195 186 175
1.65588 -0.359556 9.78 197 188 177
1.66488 -0.359189 9.77 198 189 178
1.67214 -0.358453 9.75 198 189 178
1.68281 -0.358453 9.75 200 191 180
1.69001 -0.357718 9.73 201 192 181
1.69892 -0.357351 9.72 199 190 179
1.70604 -0.356615 9.7 195 186 175
1.71488 -0.356248 9.69 199 190 179
1.72371 -0.35588 9.68 199 190 179
1.73431 -0.35588 9.68 198 189 178
1.7413 -0.355145 9.66 198 189 178
1.75006 -0.354777 9.65 198 192 180
1.7588 -0.354409 9.64 198 192 180
1.76751 -0.354042 9.63 197 190 180
1.77621 -0.353674 9.62 195 188 178
1.78302 -0.352939 9.6 187 181 174
1.79166 -0.352571 9.59 186 180 173
1.80028 -0.352204 9.58 190 188 188
1.80699 -0.351468 9.56 183 181 181
1.81175 -0.350365 9.53 147 169 187
1.81262 -0.348527 9.48 137 159 177
2.18697 -0.314336 8.55 99 115 132
2.1989 -0.314704 8.56 141 157 174
2.21085 -0.315071 8.57 165 169 168
2.22282 -0.315439 8.58 159 163 162
2.23221 -0.315439 8.58 162 162 156
2.24421 -0.315807 8.59 160 160 154
2.25362 -0.315807 8.59 159 154 149
2.26565 -0.316174 8.6 177 172 167
0 -0 0 182 176 169
2.56074 -0.354409 9.64 187 181 174
2.57396 -0.354777 9.65 182 177 172
2.5872 -0.355145 9.66 141 136 131
1.67571 -0.390933 10.96 176 181 184
1.68617 -0.390577 10.95 170 175 178
1.69505 -0.389863 10.93 171 172 169
1.70546 -0.389506 10.92 174 175 172
1.71112 -0.38808 10.88 167 163 156
1.71828 -0.38701 10.85 118 114 107
1.72696 -0.386296 10.83 127 113 103
1.7324 -0.38487 10.79 176 162 152
1.73612 -0.383086 10.74 190 179 168
1.73812 -0.380946 10.68 183 172 161
0 -0 0 191 182 169
1.69222 -0.365965 10.26 193 184 171
0 -0 0 195 186 173
0 -0 0 197 188 175
0 -0 0 197 188 175
1.65588 -0.348844 9.78 195 186 173
1.66317 -0.34813 9.76 195 186 173
1.67214 -0.347774 9.75 192 183 170
1.68109 -0.347417 9.74 198 189 176
1.69001 -0.34706 9.73 199 190 177
1.69892 -0.346704 9.72 198 189 176
1.7078 -0.346347 9.71 194 185 172
1.71665 -0.34599 9.7 197 188 177
1.72549 -0.345634 9.69 198 189 178
1.73431 -0.345277 9.68 197 188 177
1.7431 -0.34492 9.67 197 188 177
1.75187 -0.344563 9.66 199 193 181
1.76062 -0.344207 9.65 198 192 180
1.76751 -0.343493 9.63 181 174 164
1.77621 -0.343137 9.62 190 183 173
1.78488 -0.34278 9.61 187 180 175
1.79166 -0.342067 9.59 187 180 175
1.80028 -0.34171 9.58 185 185 186
1.80699 -0.340997 9.56 172 172 173
1.81365 -0.340283 9.54 147 176 195
1.81453 -0.3385 9.49 120 149 168
2.18697 -0.304971 8.55 122 136 153
2.1989 -0.305327 8.56 159 173 190
2.21343 -0.306041 8.58 159 165 165
2.22282 -0.306041 8.58 154 160 160
2.23481 -0.306398 8.59 154 153 150
2.24683 -0.306754 8.6 159 158 155
2.25886 -0.307111 8.61 163 161 155
2.27092 -0.307468 8.62 173 171 165
0 -0 0 178 174 167
2.55809 -0.343493 9.63 185 181 174
2.5713 -0.34385 9.64 175 174 171
1.67418 -0.378582 10.95 174 180 180
1.68463 -0.378237 10.94 174 180 180
1.6935 -0.377545 10.92 171 172 169
1.70389 -0.377199 10.91 175 176 173
1.71269 -0.376508 10.89 176 174 168
1.71986 -0.375471 10.86 121 119 113
1.72856 -0.374779 10.84 114 104 95
1.73561 -0.373742 10.81 138 128 119
1.74421 -0.373051 10.79 201 190 179
0 -0 0 196 185 174
1.73506 -0.366136 10.59 192 181 170
0 -0 0 195 184 173
0 -0 0 194 185 174
0 -0 0 194 185 174
0 -0 0 197 188 177
1.65588 -0.338131 9.78 195 186 175
1.66317 -0.33744 9.76 195 186 175
1.67214 -0.337094 9.75 194 185 174
1.68281 -0.337094 9.75 197 188 177
1.69001 -0.336402 9.73 198 189 178
1.69892 -0.336057 9.72 197 188 177
1.70955 -0.336057 9.72 195 186 175
1.71665 -0.335365 9.7 194 185 174
1.72549 -0.335019 9.69 195 186 175
1.7361 -0.335019 9.69 194 185 174
1.7449 -0.334674 9.68 193 184 173
1.75187 -0.333982 9.66 191 185 173
1.76062 -0.333636 9.65 192 186 174
1.77118 -0.333636 9.65 188 181 171
1.77805 -0.332945 9.63 190 183 173
1.78674 -0.332599 9.62 186 179 174
1.79353 -0.331908 9.6 182 175 170
1.80216 -0.331562 9.59 176 174 174
1.80888 -0.330871 9.57 173 171 171
1.81555 -0.330179 9.55 150 182 200
2.18953 -0.295951 8.56 147 162 176
2.20147 -0.296297 8.57 150 165 179
2.21343 -0.296643 8.58 156 161 164
2.22541 -0.296988 8.59 155 160 163
2.23741 -0.297334 8.6 161 162 159
2.24944 -0.29768 8.61 158 159 156
2.26149 -0.298026 8.62 156 156 150
2.27356 -0.298371 8.63 168 168 162
0 -0 0 182 182 176
2.55543 -0.332599 9.62 184 184 178
1.67113 -0.365919 10.93 168 174 173
1.68155 -0.365584 10.92 170 176 175
1.69195 -0.365249 10.91 169 170 167
1.70233 -0.364914 10.9 175 176 173
1.71112 -0.364245 10.88 187 186 183
1.71986 -0.363575 10.86 132 131 128
1.72856 -0.362905 10.84 117 109 102
1.73882 -0.362571 10.83 127 119 112
1.74421 -0.361232 10.79 176 167 156
0 -0 0 193 184 173
0 -0 0 188 179 168
0 -0 0 191 182 171
0 -0 0 193 184 173
0 -0 0 193 184 173
0 -0 0 197 188 177
1.65588 -0.327418 9.78 195 186 175
1.66317 -0.326749 9.76 194 185 174
1.67386 -0.326749 9.76 193 184 173
1.68281 -0.326414 9.75 186 177 166
1.69175 -0.326079 9.74 198 189 178
1.69892 -0.32541 9.72 197 188 177
1.70955 -0.32541 9.72 194 185 174
1.71842 -0.325075 9.71 188 179 168
1.72727 -0.32474 9.7 197 188 177
1.7361 -0.324405 9.69 195 186 175
1.7449 -0.324071 9.68 194 185 174
1.7555 -0.324071 9.68 188 182 170
1.76244 -0.323401 9.66 183 177 165
1.77118 -0.323066 9.65 188 181 171
1.77805 -0.322397 9.63 193 186 176
1.78674 -0.322062 9.62 184 178 171
1.7954 -0.321727 9.61 181 175 168
1.80028 -0.320723 9.58 176 173 170
1.80888 -0.320388 9.57 180 177 174
1.81745 -0.320053 9.56 144 178 196
2.18953 -0.286575 8.56 149 163 180
2.20147 -0.28691 8.57 144 158 175
2.21343 -0.287244 8.58 155 157 162
2.228 -0.287914 8.6 159 161 166
2.24001 -0.288249 8.61 165 165 165
2.25205 -0.288583 8.62 155 155 155
2.26411 -0.288918 8.63 149 150 147
2.27619 -0.289253 8.64 164 165 162
2.28829 -0.289588 8.65 180 184 184
2.55543 -0.322062 9.62 141 145 145
1.66807 -0.353299 10.91 142 148 148
1.67847 -0.352975 10.9 162 168 168
1.68885 -0.352651 10.89 169 170 167
1.69921 -0.352327 10.88 174 175 172
1.70955 -0.352003 10.87 185 183 183
1.71828 -0.351356 10.85 154 152 152
1.72856 -0.351032 10.84 163 158 153
1.73882 -0.350708 10.83 180 175 170
1.74582 -0.349736 10.8 185 175 166
0 -0 0 188 178 169
0 -0 0 190 181 170
0 -0 0 191 182 171
0 -0 0 192 183 172
0 -0 0 193 184 173
1.65358 -0.318325 9.83 195 186 175
1.65588 -0.316706 9.78 195 186 175
1.66317 -0.316058 9.76 193 184 173
1.67386 -0.316058 9.76 192 183 172
1.68281 -0.315734 9.75 187 178 167
1.69175 -0.31541 9.74 207 198 187
1.70066 -0.315087 9.73 198 189 178
1.70955 -0.314763 9.72 193 184 173
1.72019 -0.314763 9.72 188 179 168
1.72727 -0.314115 9.7 188 179 168
1.73789 -0.314115 9.7 190 181 170
1.7467 -0.313791 9.69 197 188 177
1.75731 -0.313791 9.69 183 177 165
1.76427 -0.313144 9.67 184 178 166
1.77302 -0.31282 9.66 185 178 168
1.78175 -0.312496 9.65 186 179 169
1.78859 -0.311848 9.63 188 183 173
1.7954 -0.311201 9.61 187 182 172
1.80028 -0.310229 9.58 172 173 170
1.80888 -0.309905 9.57 175 176 173
1.81555 -0.309258 9.55 134 170 190
2.18953 -0.277198 8.56 145 158 177
2.20147 -0.277522 8.57 142 155 174
2.21601 -0.27817 8.59 157 159 164
2.23059 -0.278818 8.61 154 156 161
2.24262 -0.279141 8.62 153 153 154
2.25466 -0.279465 8.63 152 152 153
2.26673 -0.279789 8.64 155 155 155
2.27883 -0.280113 8.65 171 171 171
0 -0 0 166 170 175
1.66501 -0.340722 10.89 161 166 169
1.67539 -0.340409 10.88 160 165 168
1.68575 -0.340097 10.87 164 164 165
1.69765 -0.340097 10.87 161 161 162
1.7064 -0.339471 10.85 167 167 167
1.71669 -0.339158 10.84 165 165 165
1.72856 -0.339158 10.84 166 162 162
1.73561 -0.338219 10.81 173 169 169
1.74582 -0.337906 10.8 188 181 171
0 -0 0 191 184 174
0 -0 0 188 182 170
0 -0 0 190 184 172
0 -0 0 191 185 171
0 -0 0 191 185 171
0 -0 0 190 181 170
0 -0 0 187 178 167
1.66658 -0.305993 9.78 191 182 171
1.67386 -0.305367 9.76 192 183 172
1.68454 -0.305367 9.76 192 183 172
1.69349 -0.305054 9.75 193 184 173
1.70066 -0.304429 9.73 188 179 168
1.70955 -0.304116 9.72 190 181 170
1.72019 -0.304116 9.72 190 181 170
1.73083 -0.304116 9.72 186 177 166
1.73789 -0.30349 9.7 182 176 164
1.74851 -0.30349 9.7 190 184 172
1.75731 -0.303177 9.69 189 182 172
1.76609 -0.302864 9.68 186 179 169
1.77302 -0.302239 9.66 188 183 173
1.78175 -0.301926 9.65 177 172 162
1.78859 -0.3013 9.63 173 169 162
1.7954 -0.300674 9.61 177 173 166
1.80028 -0.299736 9.58 167 176 174
1.80699 -0.29911 9.56 162 171 169
1.81555 -0.298797 9.55 107 151 172
2.18953 -0.267822 8.56 128 141 160
2.20403 -0.268448 8.58 126 139 158
2.21601 -0.268761 8.59 149 150 158
2.23318 -0.269699 8.62 156 157 165
2.24522 -0.270012 8.63 149 149 150
2.25728 -0.270325 8.64 151 151 152
2.26936 -0.270638 8.65 159 159 160
2.28146 -0.270951 8.66 168 168 169
1.66042 -0.327888 10.86 149 152 160
1.67231 -0.327888 10.86 169 172 180
1.68265 -0.327586 10.85 164 167 170
1.69296 -0.327284 10.84 170 173 176
1.70483 -0.327284 10.84 173 172 176
1.71511 -0.326982 10.83 178 177 181
1.72537 -0.32668 10.82 174 172 173
1.73721 -0.32668 10.82 164 162 163
1.74582 -0.326077 10.8 173 169 162
0 -0 0 187 183 176
1.76291 -0.324869 10.76 186 182 170
0 -0 0 186 182 170
0 -0 0 188 182 170
0 -0 0 190 184 172
0 -0 0 186 180 168
0 -0 0 186 180 168
1.66829 -0.295582 9.79 189 183 171
1.67386 -0.294677 9.76 188 182 170
1.68454 -0.294677 9.76 188 182 170
1.69349 -0.294375 9.75 186 180 168
1.70241 -0.294073 9.74 186 180 168
1.71131 -0.293771 9.73 186 180 168
1.72196 -0.293771 9.73 185 178 168
1.73083 -0.293469 9.72 184 177 167
1.74147 -0.293469 9.72 184 177 167
1.75031 -0.293167 9.71 181 174 164
1.75913 -0.292865 9.7 183 178 168
1.76792 -0.292563 9.69 177 172 162
1.77669 -0.292261 9.68 178 174 167
1.78359 -0.291657 9.66 175 171 164
1.78859 -0.290752 9.63 171 169 163
1.79727 -0.29045 9.62 170 168 162
1.80028 -0.289242 9.58 153 166 165
1.80699 -0.288638 9.56 164 177 176
1.81365 -0.288034 9.54 112 161 181
2.19209 -0.258748 8.57 104 113 138
2.20403 -0.25905 8.58 118 127 152
2.21859 -0.259654 8.6 152 155 163
2.23318 -0.260257 8.62 147 150 158
2.24522 -0.260559 8.63 151 149 155
2.25728 -0.260861 8.64 150 148 154
2.26936 -0.261163 8.65 139 140 148
2.2841 -0.261767 8.67 143 144 152
1.65737 -0.31541 10.84 133 138 147
1.66923 -0.31541 10.84 166 171 180
1.67955 -0.315119 10.83 162 167 170
1.6914 -0.315119 10.83 173 178 181
1.70168 -0.314828 10.82 172 171 175
1.71194 -0.314538 10.81 173 172 176
1.72377 -0.314538 10.81 181 179 180
1.734 -0.314247 10.8 176 174 175
1.74421 -0.313956 10.79 175 172 169
1.75602 -0.313956 10.79 183 180 177
0 -0 0 182 178 171
0 -0 0 185 181 174
0 -0 0 184 179 169
0 -0 0 184 179 169
1.67881 -0.290387 9.98 184 179 169
1.67111 -0.287186 9.87 184 179 169
0 -0 0 186 181 171
1.67729 -0.284568 9.78 183 178 168
1.68799 -0.284568 9.78 182 177 167
1.69522 -0.283986 9.76 183 178 168
1.70416 -0.283695 9.75 183 178 168
1.71307 -0.283404 9.74 186 181 171
1.72196 -0.283113 9.73 186 181 171
1.73083 -0.282822 9.72 186 181 171
1.74147 -0.282822 9.72 188 183 173
1.75031 -0.282531 9.71 180 175 165
1.75913 -0.28224 9.7 172 166 159
1.76792 -0.281949 9.69 179 173 166
1.77669 -0.281658 9.68 175 170 165
1.78359 -0.281076 9.66 175 170 165
1.78859 -0.280203 9.63 168 170 164
1.7954 -0.279621 9.61 165 167 161
1.80028 -0.278748 9.58 145 167 167
1.8051 -0.277875 9.55 154 176 176
1.81175 -0.277294 9.53 107 156 181
2.19209 -0.24936 8.57 92 105 126
2.20403 -0.249651 8.58 126 139 160
2.21859 -0.250233 8.6 161 164 172
2.23318 -0.250815 8.62 149 152 160
2.24782 -0.251397 8.64 148 150 155
2.25728 -0.251397 8.64 154 156 161
2.26936 -0.251688 8.65 141 143 153
1.65278 -0.302697 10.81 135 140 149
1.66461 -0.302697 10.81 162 167 176
1.67644 -0.302697 10.81 160 165 168
1.68828 -0.302697 10.81 161 166 169
1.69854 -0.302417 10.8 172 171 175
1.71036 -0.302417 10.8 172 171 175
1.72059 -0.302137 10.79 175 173 174
1.7324 -0.302137 10.79 175 173 174
1.74097 -0.301577 10.77 180 177 174
1.75114 -0.301297 10.76 180 177 174
0 -0 0 182 180 174
0 -0 0 182 180 174
0 -0 0 181 177 170
0 -0 0 182 178 171
0 -0 0 185 181 174
0 -0 0 185 181 174
0 -0 0 182 178 171
0 -0 0 181 177 170
1.68799 -0.273855 9.78 182 176 169
1.69522 -0.273295 9.76 183 177 170
1.70416 -0.273015 9.75 186 180 173
1.71307 -0.272735 9.74 184 178 171
1.72196 -0.272455 9.73 183 177 170
1.73083 -0.272175 9.72 184 178 171
1.74147 -0.272175 9.72 186 180 173
1.75031 -0.271895 9.71 183 177 170
1.75913 -0.271615 9.7 175 170 165
1.76792 -0.271335 9.69 177 172 167
1.77485 -0.270775 9.67 173 170 167
1.78175 -0.270215 9.65 173 170 167
1.78859 -0.269655 9.63 162 167 163
1.79353 -0.268815 9.6 162 167 163
1.7984 -0.267975 9.57 141 165 171
1.8051 -0.267415 9.55 144 168 174
2.18016 -0.239693 8.56 86 127 163
2.19209 -0.239973 8.57 118 133 154
2.20403 -0.240253 8.58 128 143 164
2.21859 -0.240813 8.6 148 154 161
2.23318 -0.241373 8.62 143 149 156
2.24522 -0.241653 8.63 139 141 146
2.25728 -0.241933 8.64 140 142 147
2.26936 -0.242213 8.65 129 134 145
1.64972 -0.290318 10.79 126 131 140
1.65999 -0.290049 10.78 160 165 174
1.67179 -0.290049 10.78 156 159 162
1.68515 -0.290318 10.79 163 166 169
1.69696 -0.290318 10.79 169 173 172
1.70561 -0.289779 10.77 169 173 172
1.7174 -0.289779 10.77 172 173 170
1.72758 -0.28951 10.76 172 173 170
1.73774 -0.289241 10.75 175 175 169
1.74788 -0.288972 10.74 177 177 171
1.75964 -0.288972 10.74 178 177 169
0 -0 0 179 178 170
1.76156 -0.285474 10.61 180 176 169
0 -0 0 182 178 171
0 -0 0 185 182 172
0 -0 0 187 184 174
0 -0 0 179 175 168
