ply
format ascii 1.0
comment Created by Open3D
element vertex 1467
property double x
property double y
property double z
property uchar red
property uchar green
property uchar blue
end_header
1.48032 -2.08642 11.3 208 199 188
1.49136 -2.08457 11.29 211 202 191
1.50372 -2.08457 11.29 212 203 192
1.51608 -2.08457 11.29 212 203 192
1.52844 -2.08457 11.29 212 203 192
1.5408 -2.08457 11.29 214 205 194
1.5504 -2.08088 11.27 212 202 193
1.56135 -2.07903 11.26 209 199 190
1.57228 -2.07719 11.25 205 198 188
1.58319 -2.07534 11.24 207 200 190
1.59265 -2.07165 11.22 201 197 197
1.6035 -2.0698 11.21 197 193 193
0 -0 0 180 173 175
0 -0 0 184 177 179
0 -0 0 178 172 170
0 -0 0 180 174 172
0 -0 0 184 178 176
0 -0 0 186 180 178
0 -0 0 186 180 178
0 -0 0 187 181 179
0 -0 0 180 174 172
0 -0 0 181 175 173
0 -0 0 185 179 177
0 -0 0 186 180 178
0 -0 0 186 181 176
0 -0 0 186 181 176
0.78317 -2.1291 11.6 187 182 177
0.795181 -2.12727 11.59 187 182 177
0.807868 -2.12727 11.59 186 181 176
0.820554 -2.12727 11.59 178 173 168
0.833241 -2.12727 11.59 174 169 164
0.845927 -2.12727 11.59 185 180 175
0.857873 -2.12543 11.58 178 173 168
0.869796 -2.1236 11.57 177 172 167
0.881698 -2.12176 11.56 181 176 171
0.893578 -2.11993 11.55 186 181 176
0.905436 -2.11809 11.54 187 183 176
0.918068 -2.11809 11.54 184 180 173
0.929893 -2.11626 11.53 182 178 171
0.940879 -2.11258 11.51 182 178 171
0.952649 -2.11075 11.5 185 180 175
0.964398 -2.10891 11.49 186 181 176
0.975274 -2.10524 11.47 182 177 172
0.986968 -2.10341 11.46 189 184 179
0.99864 -2.10157 11.45 193 188 183
1.01029 -2.09974 11.44 185 180 175
1.02102 -2.09607 11.42 185 180 175
1.03262 -2.09423 11.41 185 180 175
1.04419 -2.09239 11.4 185 179 177
1.05574 -2.09056 11.39 186 180 178
1.06727 -2.08872 11.38 189 181 179
1.07878 -2.08689 11.37 188 180 178
1.09123 -2.08689 11.37 188 179 180
1.1027 -2.08505 11.36 189 180 181
1.11416 -2.08322 11.35 189 180 181
1.12559 -2.08138 11.34 188 179 180
1.138 -2.08138 11.34 186 177 178
1.15041 -2.08138 11.34 183 174 175
1.16282 -2.08138 11.34 182 175 176
1.17627 -2.08322 11.35 184 177 178
1.18765 -2.08138 11.34 187 180 181
1.20218 -2.08505 11.36 184 177 178
1.21461 -2.08505 11.36 186 182 182
1.22813 -2.08689 11.37 186 182 182
1.24167 -2.08872 11.38 186 183 180
1.25412 -2.08872 11.38 186 183 180
1.26658 -2.08872 11.38 185 182 179
1.27791 -2.08689 11.37 185 182 179
1.29036 -2.08689 11.37 187 184 181
1.3028 -2.08689 11.37 186 183 180
1.31525 -2.08689 11.37 184 181 178
1.32536 -2.08322 11.35 184 181 178
1.3366 -2.08138 11.34 184 181 178
1.34783 -2.07955 11.33 185 182 179
1.36023 -2.07955 11.33 185 183 177
1.37263 -2.07955 11.33 187 185 179
1.38381 -2.07771 11.32 198 194 187
1.3962 -2.07771 11.32 198 194 187
1.40735 -2.07588 11.31 195 191 184
1.41973 -2.07588 11.31 192 188 181
1.43084 -2.07404 11.3 197 191 184
1.44321 -2.07404 11.3 201 195 188
1.45558 -2.07404 11.3 204 197 187
1.46795 -2.07404 11.3 206 199 189
1.48032 -2.07404 11.3 206 200 188
1.49269 -2.07404 11.3 207 201 189
1.50372 -2.0722 11.29 211 202 191
1.51608 -2.0722 11.29 212 203 192
1.52844 -2.0722 11.29 213 204 193
1.5408 -2.0722 11.29 214 205 194
1.55178 -2.07037 11.28 213 204 193
1.56274 -2.06853 11.27 208 199 188
1.57228 -2.06486 11.25 204 197 187
1.5846 -2.06486 11.25 204 197 187
1.59407 -2.06119 11.23 199 197 191
1.6035 -2.05752 11.21 212 210 204
1.61289 -2.05385 11.19 185 185 186
0 -0 0 184 177 179
0 -0 0 187 180 182
0 -0 0 184 178 176
0 -0 0 182 176 174
0 -0 0 184 178 176
0 -0 0 185 179 177
0 -0 0 186 180 178
0 -0 0 186 180 178
0 -0 0 182 176 174
0 -0 0 185 179 177
0 -0 0 187 182 177
0 -0 0 187 182 177
0 -0 0 186 181 176
0 -0 0 186 181 176
0 -0 0 187 182 177
0.795868 -2.1164 11.6 186 181 176
0.807868 -2.11457 11.59 186 181 176
0.820554 -2.11457 11.59 187 182 177
0.833241 -2.11457 11.59 181 176 171
0.845927 -2.11457 11.59 185 180 175
0.858613 -2.11457 11.59 184 179 174
0.870548 -2.11275 11.58 186 181 176
0.882461 -2.11092 11.57 186 181 176
0.895125 -2.11092 11.57 186 181 176
0.907005 -2.1091 11.56 187 182 177
0.918863 -2.10727 11.55 185 180 175
0.9307 -2.10545 11.54 185 180 175
0.942514 -2.10363 11.53 184 179 174
0.954306 -2.1018 11.52 187 182 177
0.965237 -2.09815 11.5 192 187 182
0.976975 -2.09633 11.49 178 173 168
0.987829 -2.09268 11.47 181 176 171
0.999512 -2.09085 11.46 182 177 172
1.01117 -2.08903 11.45 184 179 174
1.02281 -2.08721 11.44 184 179 174
1.03352 -2.08356 11.42 186 181 176
1.04419 -2.07991 11.4 186 180 178
1.05574 -2.07808 11.39 185 179 177
1.06727 -2.07626 11.38 186 178 176
1.07878 -2.07443 11.37 190 182 180
1.09123 -2.07443 11.37 189 180 181
1.10173 -2.07078 11.35 189 180 181
1.11317 -2.06896 11.34 188 179 180
1.12559 -2.06896 11.34 186 177 178
1.137 -2.06714 11.33 184 175 176
1.15041 -2.06896 11.34 184 175 176
1.16282 -2.06896 11.34 186 178 176
1.17524 -2.06896 11.34 188 180 178
1.1887 -2.07078 11.35 190 182 180
1.20112 -2.07078 11.35 188 180 178
1.21461 -2.07261 11.36 186 180 178
1.22813 -2.07443 11.37 188 182 180
1.24057 -2.07443 11.37 189 183 181
1.25302 -2.07443 11.37 191 185 183
1.26547 -2.07443 11.37 189 186 183
1.27791 -2.07443 11.37 185 182 179
1.28922 -2.07261 11.36 187 184 181
1.30166 -2.07261 11.36 185 182 179
1.31409 -2.07261 11.36 184 181 178
1.32419 -2.06896 11.34 185 182 179
1.33542 -2.06714 11.33 184 181 178
1.34783 -2.06714 11.33 183 180 177
1.36023 -2.06714 11.33 184 181 178
1.37142 -2.06531 11.32 187 184 181
1.38381 -2.06531 11.32 187 184 181
1.39497 -2.06349 11.31 187 184 181
1.40735 -2.06349 11.31 192 189 186
1.41973 -2.06349 11.31 196 193 190
1.43211 -2.06349 11.31 194 192 186
1.44449 -2.06349 11.31 191 189 183
1.45558 -2.06166 11.3 197 191 184
1.46795 -2.06166 11.3 201 195 188
1.48032 -2.06166 11.3 205 198 188
1.49269 -2.06166 11.3 205 198 188
1.50505 -2.06166 11.3 205 199 187
1.51608 -2.05984 11.29 209 203 191
1.52844 -2.05984 11.29 210 204 192
1.5408 -2.05984 11.29 210 204 192
1.55178 -2.05801 11.28 211 205 193
1.56413 -2.05801 11.28 213 207 195
1.57368 -2.05436 11.26 209 202 192
1.5846 -2.05254 11.25 205 198 188
1.59549 -2.05072 11.24 200 199 191
1.60493 -2.04707 11.22 204 203 195
1.61433 -2.04342 11.2 190 194 193
1.62369 -2.03977 11.18 164 168 167
0 -0 0 186 178 183
0 -0 0 186 178 183
0 -0 0 182 176 174
0 -0 0 182 176 174
0 -0 0 184 178 176
0 -0 0 184 178 176
0 -0 0 185 179 177
0 -0 0 185 179 177
0 -0 0 184 178 176
0 -0 0 184 178 176
0 -0 0 185 180 175
0 -0 0 186 181 176
0 -0 0 185 180 175
0 -0 0 186 181 176
0.784521 -2.10732 11.62 186 181 176
0.796554 -2.1055 11.61 186 181 176
0.809262 -2.1055 11.61 185 180 175
0.821262 -2.10369 11.6 186 181 176
0.83396 -2.10369 11.6 184 179 174
0.845927 -2.10188 11.59 185 180 175
0.858613 -2.10188 11.59 185 180 175
0.8713 -2.10188 11.59 185 180 175
0.883224 -2.10006 11.58 187 182 177
0.895899 -2.10006 11.58 186 181 176
0.90779 -2.09825 11.57 186 181 176
0.919659 -2.09644 11.56 185 180 175
0.931506 -2.09462 11.55 185 181 174
0.943331 -2.09281 11.54 186 182 175
0.955135 -2.091 11.53 187 183 176
0.966916 -2.08918 11.52 191 187 180
0.977825 -2.08556 11.5 186 182 175
0.989552 -2.08374 11.49 184 180 173
1.00126 -2.08193 11.48 185 181 174
1.01206 -2.0783 11.46 186 182 175
1.02371 -2.07649 11.45 186 181 176
1.03352 -2.07105 11.42 186 181 176
1.04511 -2.06923 11.41 186 180 178
1.05667 -2.06742 11.4 185 179 177
1.06727 -2.06379 11.38 186 180 178
1.07878 -2.06198 11.37 186 180 178
1.09123 -2.06198 11.37 185 179 177
1.1027 -2.06017 11.36 185 179 177
1.11416 -2.05835 11.35 185 179 177
1.12559 -2.05654 11.34 185 179 177
1.137 -2.05473 11.33 184 179 174
1.15041 -2.05654 11.34 184 179 174
1.16282 -2.05654 11.34 185 180 175
1.17524 -2.05654 11.34 187 182 177
1.18765 -2.05654 11.34 187 182 177
1.20112 -2.05835 11.35 186 181 176
1.21461 -2.06017 11.36 186 181 176
1.22705 -2.06017 11.36 187 182 177
1.24057 -2.06198 11.37 187 185 179
1.25192 -2.06017 11.36 189 187 181
1.26435 -2.06017 11.36 189 187 181
1.27679 -2.06017 11.36 180 178 172
1.28922 -2.06017 11.36 183 181 175
1.30166 -2.06017 11.36 178 176 170
1.31293 -2.05835 11.35 179 176 173
1.32302 -2.05473 11.33 179 176 173
1.33542 -2.05473 11.33 178 176 176
1.34783 -2.05473 11.33 178 176 176
1.35903 -2.05291 11.32 176 174 175
1.37142 -2.05291 11.32 189 187 188
1.38381 -2.05291 11.32 184 182 183
1.3962 -2.05291 11.32 184 182 183
1.40859 -2.05291 11.32 185 183 184
1.41973 -2.0511 11.31 175 173 174
1.43211 -2.0511 11.31 190 189 186
1.44449 -2.0511 11.31 190 189 186
1.45687 -2.0511 11.31 190 187 184
1.46925 -2.0511 11.31 189 186 183
1.48163 -2.0511 11.31 198 193 188
1.49401 -2.0511 11.31 199 194 189
1.50639 -2.0511 11.31 202 196 189
1.51742 -2.04928 11.3 202 196 189
1.52979 -2.04928 11.3 203 198 188
1.5408 -2.04747 11.29 203 198 188
1.55316 -2.04747 11.29 206 199 189
1.56413 -2.04566 11.28 207 200 190
1.57508 -2.04384 11.27 204 199 189
1.586 -2.04203 11.26 204 199 189
1.59549 -2.0384 11.24 200 196 189
1.60636 -2.03659 11.23 200 196 189
1.61577 -2.03296 11.21 200 200 200
1.62514 -2.02934 11.19 189 189 189
0 -0 0 177 168 175
0 -0 0 185 176 183
0 -0 0 180 173 174
0 -0 0 182 175 176
0 -0 0 184 178 176
0 -0 0 184 178 176
0 -0 0 185 179 177
0 -0 0 186 180 178
0 -0 0 184 178 176
0 -0 0 184 178 176
0 -0 0 184 179 174
0 -0 0 185 180 175
0 -0 0 185 180 175
0 -0 0 185 180 175
0.784521 -2.09459 11.62 185 180 175
0.79724 -2.09459 11.62 185 180 175
0.809959 -2.09459 11.62 185 180 175
0.822678 -2.09459 11.62 185 180 175
0.83396 -2.09098 11.6 185 180 175
0.846657 -2.09098 11.6 186 181 176
0.858613 -2.08918 11.59 186 181 176
0.8713 -2.08918 11.59 185 180 175
0.883986 -2.08918 11.59 186 181 176
0.895899 -2.08738 11.58 186 181 176
0.908575 -2.08738 11.58 186 181 176
0.920455 -2.08558 11.57 184 179 174
0.932313 -2.08377 11.56 185 181 174
0.944149 -2.08197 11.55 187 183 176
0.955963 -2.08017 11.54 187 183 176
0.967755 -2.07837 11.53 187 183 176
0.977825 -2.07296 11.5 187 183 176
0.990413 -2.07296 11.5 186 182 175
1.00213 -2.07116 11.49 187 183 176
1.01294 -2.06755 11.47 186 182 175
1.02371 -2.06395 11.45 186 180 178
1.03533 -2.06214 11.44 186 180 178
1.04511 -2.05674 11.41 186 180 178
1.0576 -2.05674 11.41 188 182 180
1.06821 -2.05313 11.39 189 183 181
1.07973 -2.05133 11.38 187 181 179
1.09123 -2.04953 11.37 185 179 177
1.1027 -2.04772 11.36 185 179 177
1.11416 -2.04592 11.35 185 180 175
1.12658 -2.04592 11.35 184 179 174
1.138 -2.04412 11.34 185 181 174
1.15041 -2.04412 11.34 185 181 174
1.16282 -2.04412 11.34 187 183 176
1.1742 -2.04232 11.33 188 184 177
1.1866 -2.04232 11.33 188 184 177
1.19901 -2.04232 11.33 188 184 177
1.21248 -2.04412 11.34 185 184 176
1.22489 -2.04412 11.34 185 184 176
1.23839 -2.04592 11.35 187 185 179
1.25082 -2.04592 11.35 191 189 183
1.26324 -2.04592 11.35 187 185 179
1.27566 -2.04592 11.35 179 177 171
1.28809 -2.04592 11.35 179 177 171
1.30051 -2.04592 11.35 179 177 171
1.31293 -2.04592 11.35 177 176 173
1.32302 -2.04232 11.33 171 170 167
1.33542 -2.04232 11.33 161 159 159
1.34783 -2.04232 11.33 173 171 171
1.36023 -2.04232 11.33 166 164 170
1.37263 -2.04232 11.33 165 163 169
1.38503 -2.04232 11.33 176 178 183
1.3962 -2.04051 11.32 173 175 180
1.40859 -2.04051 11.32 176 179 182
1.42098 -2.04051 11.32 166 169 172
1.43337 -2.04051 11.32 176 176 176
1.44576 -2.04051 11.32 190 190 190
1.45816 -2.04051 11.32 185 184 181
1.47185 -2.04232 11.33 184 183 180
1.48425 -2.04232 11.33 199 196 193
1.49665 -2.04232 11.33 203 200 197
1.50905 -2.04232 11.33 201 196 191
1.52011 -2.04051 11.32 199 194 189
1.53115 -2.03871 11.31 200 194 187
1.54216 -2.03691 11.3 203 197 190
1.55316 -2.0351 11.29 202 196 189
1.56551 -2.0351 11.29 204 198 191
1.57647 -2.0333 11.28 202 196 189
1.58741 -2.0315 11.27 203 197 190
1.59691 -2.02789 11.25 200 195 190
1.60779 -2.02609 11.24 195 190 185
1.61577 -2.02068 11.21 196 193 190
1.62659 -2.01888 11.2 207 204 201
1.63446 -2.01347 11.17 180 181 189
0 -0 0 166 163 167
0 -0 0 176 173 177
0 -0 0 182 178 178
0 -0 0 182 178 178
0 -0 0 182 179 176
0 -0 0 183 180 177
0 -0 0 187 181 179
0 -0 0 187 181 179
0 -0 0 186 180 178
0 -0 0 185 179 177
0 -0 0 184 179 174
0 -0 0 182 177 172
0 -0 0 181 176 171
0 -0 0 184 179 174
0.785196 -2.08365 11.63 185 180 175
0.79724 -2.08186 11.62 185 180 175
0.809959 -2.08186 11.62 186 181 176
0.82197 -2.08007 11.61 187 182 177
0.834679 -2.08007 11.61 186 181 176
0.846657 -2.07828 11.6 186 181 176
0.859354 -2.07828 11.6 186 181 176
0.8713 -2.07649 11.59 185 180 175
0.883986 -2.07649 11.59 185 180 175
0.895899 -2.07469 11.58 185 180 175
0.908575 -2.07469 11.58 185 180 175
0.920455 -2.0729 11.57 184 179 174
0.932313 -2.07111 11.56 182 178 171
0.944149 -2.06932 11.55 184 180 173
0.955963 -2.06753 11.54 186 182 175
0.967755 -2.06574 11.53 186 182 175
0.978675 -2.06215 11.51 187 183 176
0.990413 -2.06036 11.5 187 183 176
1.00213 -2.05857 11.49 187 183 176
1.01382 -2.05678 11.48 187 183 176
1.0246 -2.0532 11.46 186 180 178
1.03533 -2.04961 11.44 186 180 178
1.04602 -2.04603 11.42 187 181 179
1.0576 -2.04424 11.41 189 183 181
1.06915 -2.04245 11.4 189 183 181
1.08068 -2.04065 11.39 188 182 180
1.09219 -2.03886 11.38 185 182 179
1.10367 -2.03707 11.37 185 182 179
1.11514 -2.03528 11.36 184 182 176
1.12658 -2.03349 11.35 184 182 176
1.138 -2.0317 11.34 183 181 175
1.15041 -2.0317 11.34 183 181 175
1.1618 -2.0299 11.33 184 183 175
1.1742 -2.0299 11.33 185 184 176
1.1866 -2.0299 11.33 184 183 175
1.19901 -2.0299 11.33 186 185 177
1.21141 -2.0299 11.33 186 184 178
1.22489 -2.0317 11.34 185 183 177
1.2373 -2.0317 11.34 185 183 177
1.24971 -2.0317 11.34 184 182 176
1.26213 -2.0317 11.34 182 180 174
1.27454 -2.0317 11.34 183 181 175
1.28809 -2.03349 11.35 184 182 176
1.30051 -2.03349 11.35 184 182 176
1.31293 -2.03349 11.35 181 180 177
1.32419 -2.0317 11.34 175 174 171
1.33542 -2.0299 11.33 164 168 168
1.34783 -2.0299 11.33 164 168 168
1.36023 -2.0299 11.33 161 163 168
1.37263 -2.0299 11.33 151 153 158
1.38503 -2.0299 11.33 156 159 167
1.39743 -2.0299 11.33 168 171 179
1.40984 -2.0299 11.33 166 173 177
1.42224 -2.0299 11.33 169 176 180
1.43464 -2.0299 11.33 170 175 178
1.44704 -2.0299 11.33 168 173 176
1.45944 -2.0299 11.33 178 182 181
1.47314 -2.0317 11.34 180 184 183
1.48556 -2.0317 11.34 187 185 185
1.49797 -2.0317 11.34 188 186 186
1.51038 -2.0317 11.34 191 189 183
1.52145 -2.0299 11.33 190 188 182
1.53385 -2.0299 11.33 200 194 187
1.54489 -2.02811 11.32 202 196 189
1.55591 -2.02632 11.31 205 197 190
1.5669 -2.02453 11.3 204 196 189
1.57787 -2.02274 11.29 202 196 189
1.58882 -2.02095 11.28 202 196 189
1.59833 -2.01736 11.26 202 196 189
1.60922 -2.01557 11.25 200 194 187
1.61721 -2.0102 11.22 195 189 187
1.62659 -2.00661 11.2 201 195 193
1.63592 -2.00303 11.18 201 199 205
0 -0 0 172 170 176
0 -0 0 171 169 175
0 -0 0 187 185 185
0 -0 0 181 179 179
0 -0 0 180 178 178
0 -0 0 180 178 178
0 -0 0 184 181 178
0 -0 0 184 181 178
0 -0 0 185 182 179
0 -0 0 182 179 176
0 -0 0 181 175 173
0 -0 0 181 175 173
0 -0 0 185 180 175
0 -0 0 186 181 176
0.786546 -2.07448 11.65 187 182 177
0.79724 -2.06913 11.62 187 182 177
0.809959 -2.06913 11.62 187 182 177
0.822678 -2.06913 11.62 186 181 176
0.835397 -2.06913 11.62 185 180 175
0.847387 -2.06735 11.61 186 181 176
0.859354 -2.06557 11.6 186 181 176
0.8713 -2.06379 11.59 186 181 176
0.883986 -2.06379 11.59 187 182 177
0.895899 -2.06201 11.58 186 181 176
0.90779 -2.06023 11.57 186 181 176
0.920455 -2.06023 11.57 184 179 174
0.932313 -2.05845 11.56 174 170 163
0.944149 -2.05667 11.55 179 175 168
0.955963 -2.05489 11.54 186 182 175
0.967755 -2.05311 11.53 187 183 176
0.978675 -2.04955 11.51 188 184 177
0.990413 -2.04777 11.5 187 183 176
1.003 -2.04777 11.5 186 182 175
1.01382 -2.0442 11.48 187 183 176
1.0246 -2.04064 11.46 188 183 178
1.03624 -2.03886 11.45 186 181 176
1.04694 -2.0353 11.43 185 180 175
1.0576 -2.03174 11.41 187 182 177
1.07009 -2.03174 11.41 184 182 176
1.08163 -2.02996 11.4 186 184 178
1.09315 -2.02818 11.39 185 183 177
1.10367 -2.02462 11.37 184 182 176
1.11612 -2.02462 11.37 184 182 176
1.12757 -2.02284 11.36 184 182 176
1.138 -2.01927 11.34 184 182 176
1.15041 -2.01927 11.34 183 181 175
1.16282 -2.01927 11.34 183 181 175
1.17524 -2.01927 11.34 185 183 177
1.1866 -2.01749 11.33 182 180 174
1.20006 -2.01927 11.34 178 176 170
1.21248 -2.01927 11.34 185 183 177
1.22489 -2.01927 11.34 186 184 178
1.23839 -2.02106 11.35 185 183 177
1.25082 -2.02106 11.35 185 183 177
1.26324 -2.02106 11.35 187 185 179
1.27679 -2.02284 11.36 189 187 181
1.28922 -2.02284 11.36 186 184 178
1.3028 -2.02462 11.37 184 182 176
1.31409 -2.02284 11.36 179 180 177
1.32653 -2.02284 11.36 182 183 180
1.33778 -2.02106 11.35 168 174 174
1.34902 -2.01927 11.34 163 169 169
1.36143 -2.01927 11.34 154 160 167
1.37384 -2.01927 11.34 145 151 158
1.38503 -2.01749 11.33 145 152 161
1.39743 -2.01749 11.33 163 170 179
1.41108 -2.01927 11.34 157 167 174
1.42349 -2.01927 11.34 155 165 172
1.43591 -2.01927 11.34 162 170 177
1.4496 -2.02106 11.35 158 166 173
1.46202 -2.02106 11.35 173 179 179
1.47574 -2.02284 11.36 174 180 180
1.48818 -2.02284 11.36 183 183 183
1.50193 -2.02462 11.37 185 185 185
1.51305 -2.02284 11.36 186 184 178
1.52548 -2.02284 11.36 190 188 182
1.53656 -2.02106 11.35 206 198 191
1.54626 -2.01749 11.33 206 198 191
1.55866 -2.01749 11.33 205 197 190
1.56967 -2.01571 11.32 203 195 188
1.57927 -2.01215 11.3 203 195 188
1.59023 -2.01037 11.29 205 197 190
1.60117 -2.00859 11.28 203 197 190
1.61065 -2.00503 11.26 207 201 194
1.6201 -2.00147 11.24 199 194 189
1.62804 -1.99613 11.21 194 189 184
1.63592 -1.99078 11.18 192 191 195
0 -0 0 173 176 179
0 -0 0 169 172 175
0 -0 0 182 182 182
0 -0 0 178 178 178
0 -0 0 178 176 176
0 -0 0 178 176 176
0 -0 0 180 177 174
0 -0 0 180 177 174
0 -0 0 185 182 179
0 -0 0 182 179 176
0 -0 0 182 179 176
0 -0 0 179 176 173
0 -0 0 185 180 175
0 -0 0 186 181 176
0.786546 -2.06171 11.65 195 190 185
0.797926 -2.05817 11.63 191 186 181
0.810656 -2.05817 11.63 186 181 176
0.823386 -2.05817 11.63 186 181 176
0.835397 -2.05641 11.62 182 177 172
0.847387 -2.05464 11.61 186 181 176
0.859354 -2.05287 11.6 186 181 176
0.8713 -2.0511 11.59 187 182 177
0.883986 -2.0511 11.59 187 182 177
0.895899 -2.04933 11.58 187 182 177
0.90779 -2.04756 11.57 186 181 176
0.919659 -2.04579 11.56 185 180 175
0.932313 -2.04579 11.56 181 177 170
0.944149 -2.04402 11.55 181 177 170
0.955963 -2.04225 11.54 186 182 175
0.966916 -2.03871 11.52 186 182 175
0.978675 -2.03694 11.51 189 185 178
0.990413 -2.03517 11.5 185 181 174
1.00213 -2.0334 11.49 186 181 176
1.01382 -2.03163 11.48 187 182 177
1.0246 -2.02809 11.46 188 182 180
1.03624 -2.02632 11.45 188 182 180
1.04786 -2.02455 11.44 187 181 179
1.05853 -2.02101 11.42 187 181 179
1.07009 -2.01924 11.41 184 181 178
1.08258 -2.01924 11.41 183 180 177
1.09411 -2.01747 11.4 182 180 174
1.10464 -2.01393 11.38 183 181 175
1.11612 -2.01216 11.37 184 182 176
1.12856 -2.01216 11.37 184 182 176
1.14001 -2.01039 11.36 184 182 176
1.15143 -2.00862 11.35 183 181 175
1.16282 -2.00685 11.34 184 182 176
1.17524 -2.00685 11.34 185 183 177
1.18765 -2.00685 11.34 183 181 175
1.20112 -2.00862 11.35 183 181 175
1.21355 -2.00862 11.35 184 181 178
1.22705 -2.01039 11.36 186 183 180
1.23948 -2.01039 11.36 186 183 180
1.25302 -2.01216 11.37 185 182 179
1.26547 -2.01216 11.37 184 181 178
1.27791 -2.01216 11.37 183 180 177
1.29036 -2.01216 11.37 183 180 177
1.3028 -2.01216 11.37 183 180 177
1.31525 -2.01216 11.37 175 176 173
1.32769 -2.01216 11.37 174 175 172
1.34014 -2.01216 11.37 163 167 167
1.3514 -2.01039 11.36 158 162 162
1.36383 -2.01039 11.36 157 164 168
1.37505 -2.00862 11.35 151 158 162
1.38748 -2.00862 11.35 144 154 161
1.3999 -2.00862 11.35 150 160 167
1.41232 -2.00862 11.35 148 160 168
1.42475 -2.00862 11.35 151 163 171
1.43844 -2.01039 11.36 156 169 175
1.45087 -2.01039 11.36 155 168 174
1.4646 -2.01216 11.37 159 168 172
1.47704 -2.01216 11.37 162 171 175
1.4908 -2.01393 11.38 171 177 176
1.50325 -2.01393 11.38 176 182 181
1.51571 -2.01393 11.38 182 182 176
1.52682 -2.01216 11.37 189 189 183
1.53927 -2.01216 11.37 200 194 187
1.55035 -2.01039 11.36 205 199 192
1.56141 -2.00862 11.35 205 198 188
1.57106 -2.00508 11.33 204 197 187
1.58206 -2.00331 11.32 204 197 187
1.59164 -1.99977 11.3 204 197 187
1.60259 -1.998 11.29 202 197 187
1.61208 -1.99447 11.27 200 195 185
1.62154 -1.99093 11.25 195 190 185
1.6295 -1.98562 11.22 194 189 184
1.63885 -1.98208 11.2 188 186 187
1.64669 -1.97677 11.17 187 185 186
0 -0 0 183 186 189
0 -0 0 176 179 182
0 -0 0 178 178 178
0 -0 0 176 176 176
0 -0 0 178 176 176
0 -0 0 180 178 178
0 -0 0 180 179 176
0 -0 0 183 182 179
0 -0 0 185 182 179
0 -0 0 182 179 176
0 -0 0 183 180 177
0 -0 0 183 180 177
0 -0 0 187 184 181
0 -0 0 183 180 177
0.787896 -2.05247 11.67 185 179 177
0.799298 -2.04895 11.65 186 180 178
0.811353 -2.04719 11.64 187 182 177
0.823386 -2.04544 11.63 188 183 178
0.835397 -2.04368 11.62 188 183 178
0.847387 -2.04192 11.61 187 182 177
0.859354 -2.04016 11.6 186 181 176
0.8713 -2.0384 11.59 187 182 177
0.883986 -2.0384 11.59 187 182 177
0.895899 -2.03664 11.58 186 181 176
0.90779 -2.03488 11.57 186 181 176
0.919659 -2.03312 11.56 185 180 175
0.931506 -2.03137 11.55 186 181 176
0.943331 -2.02961 11.54 188 183 178
0.955135 -2.02785 11.53 186 181 176
0.966916 -2.02609 11.52 186 181 176
0.977825 -2.02257 11.5 194 189 184
0.990413 -2.02257 11.5 187 182 177
1.00213 -2.02081 11.49 186 180 178
1.01382 -2.01905 11.48 187 181 179
1.0246 -2.01554 11.46 187 181 179
1.03624 -2.01378 11.45 188 182 180
1.04786 -2.01202 11.44 196 190 188
1.05945 -2.01026 11.43 192 186 184
1.07103 -2.0085 11.42 183 180 177
1.08258 -2.00674 11.41 183 180 177
1.09411 -2.00498 11.4 182 179 176
1.10561 -2.00323 11.39 182 179 176
1.1171 -2.00147 11.38 183 180 177
1.12856 -1.99971 11.37 185 182 179
1.14101 -1.99971 11.37 185 182 179
1.15346 -1.99971 11.37 184 181 178
1.16488 -1.99795 11.36 183 180 177
1.17731 -1.99795 11.36 183 180 177
1.18975 -1.99795 11.36 184 181 178
1.20324 -1.99971 11.37 184 181 178
1.21568 -1.99971 11.37 185 182 179
1.22813 -1.99971 11.37 184 181 178
1.24057 -1.99971 11.37 183 180 177
1.25412 -2.00147 11.38 182 179 176
1.26769 -2.00323 11.39 185 182 179
1.28016 -2.00323 11.39 184 181 178
1.29263 -2.00323 11.39 184 181 178
1.30509 -2.00323 11.39 178 175 172
1.31756 -2.00323 11.39 171 171 171
1.33003 -2.00323 11.39 171 171 171
1.34132 -2.00147 11.38 170 174 174
1.35377 -2.00147 11.38 176 180 180
1.36503 -1.99971 11.37 160 167 171
1.37748 -1.99971 11.37 160 167 171
1.3887 -1.99795 11.36 151 162 166
1.40113 -1.99795 11.36 149 160 164
1.41357 -1.99795 11.36 145 159 167
1.42726 -1.99971 11.37 145 159 167
1.4397 -1.99971 11.37 150 164 172
1.45215 -1.99971 11.37 152 166 174
1.46588 -2.00147 11.38 157 166 175
1.48094 -2.00498 11.4 162 171 180
1.49342 -2.00498 11.4 165 175 177
1.50722 -2.00674 11.41 169 179 181
1.51971 -2.00674 11.41 182 183 180
1.53085 -2.00498 11.4 190 191 188
1.54198 -2.00323 11.39 193 190 180
1.55308 -2.00147 11.38 201 198 188
1.56416 -1.99971 11.37 204 197 187
1.57522 -1.99795 11.36 203 196 186
1.58486 -1.99443 11.34 203 196 186
1.59445 -1.99091 11.32 203 196 186
1.60401 -1.9874 11.3 201 196 186
1.61495 -1.98564 11.29 200 195 185
1.62298 -1.98036 11.26 196 192 185
1.6324 -1.97684 11.24 193 189 182
1.64031 -1.97157 11.21 192 190 190
1.64816 -1.96629 11.18 197 195 195
0 -0 0 138 144 158
0 -0 0 182 186 186
0 -0 0 163 167 167
0 -0 0 176 176 176
0 -0 0 175 175 175
0 -0 0 178 178 178
0 -0 0 178 178 178
0 -0 0 181 179 179
0 -0 0 181 179 179
0 -0 0 180 179 176
0.749463 -2.11135 12.08 180 179 176
0 -0 0 183 180 177
0 -0 0 187 184 181
0 -0 0 191 188 185
0 -0 0 182 179 176
0.789246 -2.04318 11.69 183 180 177
0.799984 -2.03794 11.66 185 182 179
0.81205 -2.03619 11.65 186 181 176
0.824094 -2.03444 11.64 187 182 177
0.836116 -2.0327 11.63 189 184 179
0.847387 -2.0292 11.61 186 181 176
0.860095 -2.0292 11.61 186 181 176
0.8713 -2.02571 11.59 187 182 177
0.883224 -2.02396 11.58 187 182 177
0.895125 -2.02221 11.57 186 181 176
0.907005 -2.02046 11.56 186 181 176
0.918863 -2.01871 11.55 186 181 176
0.9307 -2.01697 11.54 186 181 176
0.943331 -2.01697 11.54 187 182 177
0.955135 -2.01522 11.53 186 181 176
0.966077 -2.01172 11.51 184 179 174
0.977825 -2.00998 11.5 187 181 179
0.989552 -2.00823 11.49 186 180 178
1.00213 -2.00823 11.49 186 180 178
1.01382 -2.00648 11.48 187 181 179
1.0246 -2.00298 11.46 188 182 180
1.03624 -2.00124 11.45 189 183 181
1.04877 -2.00124 11.45 191 185 183
1.06038 -1.99949 11.44 188 182 180
1.07196 -1.99774 11.43 178 175 172
1.08353 -1.99599 11.42 183 180 177
1.09507 -1.99425 11.41 183 180 177
1.10659 -1.9925 11.4 183 180 177
1.11808 -1.99075 11.39 182 179 176
1.12956 -1.989 11.38 184 181 178
1.14201 -1.989 11.38 185 182 179
1.15447 -1.989 11.38 178 175 172
1.16693 -1.989 11.38 173 170 167
1.17938 -1.989 11.38 178 175 172
1.19184 -1.989 11.38 185 181 181
1.2043 -1.989 11.38 187 183 183
1.21782 -1.99075 11.39 187 183 183
1.23029 -1.99075 11.39 187 183 183
1.24385 -1.9925 11.4 191 187 187
1.25743 -1.99425 11.41 184 180 180
1.26992 -1.99425 11.41 186 182 182
1.28241 -1.99425 11.41 184 180 180
1.2949 -1.99425 11.41 184 180 180
1.30739 -1.99425 11.41 183 179 179
1.31988 -1.99425 11.41 175 173 173
1.33236 -1.99425 11.41 173 171 171
1.34368 -1.9925 11.4 168 171 174
1.35496 -1.99075 11.39 168 171 174
1.36743 -1.99075 11.39 161 168 172
1.37748 -1.98725 11.37 161 168 172
1.38992 -1.98725 11.37 146 159 165
1.40237 -1.98725 11.37 149 162 168
1.41481 -1.98725 11.37 147 161 169
1.42851 -1.989 11.38 147 161 169
1.44224 -1.99075 11.39 149 163 173
1.45598 -1.9925 11.4 151 165 175
1.46975 -1.99425 11.41 153 167 177
1.48224 -1.99425 11.41 150 164 174
1.49735 -1.99774 11.43 151 159 166
1.50986 -1.99774 11.43 164 172 179
1.52237 -1.99774 11.43 178 179 176
1.53354 -1.99599 11.42 180 181 178
1.54468 -1.99425 11.41 191 187 180
1.55581 -1.9925 11.4 193 189 182
1.56691 -1.99075 11.39 200 195 185
1.57661 -1.98725 11.37 201 196 186
1.58765 -1.98551 11.36 200 195 185
1.59727 -1.98201 11.34 200 195 185
1.60685 -1.97851 11.32 200 195 185
1.61495 -1.97327 11.29 200 195 185
1.62586 -1.97152 11.28 192 188 181
1.63385 -1.96628 11.25 191 187 180
1.64031 -1.95929 11.21 192 191 188
1.64816 -1.95405 11.18 191 190 187
0 -0 0 119 126 137
0 -0 0 178 182 182
0 -0 0 170 174 174
0 -0 0 179 183 182
0 -0 0 175 179 178
0 -0 0 176 181 177
0 -0 0 176 181 177
0 -0 0 181 180 177
0 -0 0 182 181 178
0 -0 0 182 181 178
0.748223 -2.09464 12.06 183 182 179
0.755741 -2.07901 11.97 180 179 176
0 -0 0 180 179 176
0 -0 0 182 179 176
0 -0 0 182 179 176
0.791272 -2.03559 11.72 183 180 177
0.802042 -2.03038 11.69 183 180 177
0.813444 -2.0269 11.67 183 180 177
0.824802 -2.02343 11.65 184 181 178
0.836835 -2.02169 11.64 187 182 177
0.848847 -2.01996 11.63 185 180 175
0.860095 -2.01648 11.61 186 181 176
0.8713 -2.01301 11.59 187 182 177
0.883224 -2.01127 11.58 187 182 177
0.894352 -2.0078 11.56 186 181 176
0.906221 -2.00606 11.55 186 181 176
0.918068 -2.00433 11.54 186 181 176
0.9307 -2.00433 11.54 186 180 178
0.942514 -2.00259 11.53 187 181 179
0.953478 -1.99912 11.51 187 181 179
0.965237 -1.99738 11.5 185 179 177
0.977825 -1.99738 11.5 185 179 177
0.989552 -1.99564 11.49 184 178 176
1.00126 -1.9939 11.48 186 180 178
1.01294 -1.99217 11.47 187 181 179
1.0246 -1.99043 11.46 188 182 180
1.03624 -1.98869 11.45 189 183 181
1.04877 -1.98869 11.45 192 186 184
1.06038 -1.98696 11.44 187 181 179
1.07196 -1.98522 11.43 180 177 174
1.08353 -1.98348 11.42 183 180 177
1.09507 -1.98175 11.41 185 182 179
1.10756 -1.98175 11.41 183 180 177
1.11906 -1.98001 11.4 182 179 176
1.13154 -1.98001 11.4 183 180 177
1.14302 -1.97827 11.39 185 182 179
1.15548 -1.97827 11.39 183 180 177
1.16795 -1.97827 11.39 182 178 178
1.18146 -1.98001 11.4 189 185 185
1.19393 -1.98001 11.4 185 181 181
1.20747 -1.98175 11.41 183 179 179
1.21996 -1.98175 11.41 185 181 181
1.23245 -1.98175 11.41 190 186 186
1.24712 -1.98522 11.43 192 188 188
1.25963 -1.98522 11.43 184 180 180
1.27214 -1.98522 11.43 183 181 181
1.28466 -1.98522 11.43 182 180 180
1.2983 -1.98696 11.44 180 178 178
1.31082 -1.98696 11.44 180 178 178
1.32335 -1.98696 11.44 175 173 174
1.3347 -1.98522 11.43 174 172 173
1.34603 -1.98348 11.42 171 171 172
1.35734 -1.98175 11.41 165 165 166
1.36983 -1.98175 11.41 160 167 171
1.38111 -1.98001 11.4 162 169 173
1.39237 -1.97827 11.39 153 167 170
1.40483 -1.97827 11.39 152 166 169
1.41855 -1.98001 11.4 147 161 169
1.43102 -1.98001 11.4 149 163 171
1.44477 -1.98175 11.41 150 164 174
1.45726 -1.98175 11.41 154 168 178
1.47232 -1.98522 11.43 161 173 183
1.48613 -1.98696 11.44 151 163 173
1.49997 -1.98869 11.45 149 158 167
1.5125 -1.98869 11.45 156 165 174
1.52503 -1.98869 11.45 173 173 174
1.53757 -1.98869 11.45 176 176 177
1.54875 -1.98696 11.44 187 185 179
1.55854 -1.98348 11.42 191 189 183
1.56966 -1.98175 11.41 197 191 184
1.58077 -1.98001 11.4 198 192 185
1.58905 -1.9748 11.37 198 192 185
1.60009 -1.97306 11.36 198 192 185
1.60827 -1.96785 11.33 197 191 184
1.61781 -1.96438 11.31 202 196 189
1.6273 -1.9609 11.29 195 189 182
1.63385 -1.95396 11.25 194 188 181
1.64178 -1.94875 11.22 189 190 187
1.64816 -1.9418 11.18 192 193 190
0 -0 0 143 150 161
0 -0 0 182 187 190
0 -0 0 178 183 186
0 -0 0 178 182 181
0 -0 0 176 180 179
0 -0 0 180 180 180
0 -0 0 179 179 179
0 -0 0 181 179 179
0 -0 0 181 179 179
0 -0 0 182 181 178
0.747602 -2.07971 12.05 183 182 179
0.756373 -2.06762 11.98 181 180 177
0 -0 0 180 179 176
0 -0 0 180 177 174
0 -0 0 182 179 176
0.792622 -2.0262 11.74 182 179 176
0.802728 -2.0193 11.7 182 179 176
0.814141 -2.01585 11.68 183 180 177
0.826218 -2.01412 11.67 184 181 178
0.837554 -2.01067 11.65 184 181 178
0.848847 -2.00722 11.63 185 182 179
0.860095 -2.00377 11.61 184 181 178
0.8713 -2.00031 11.59 183 180 177
0.883224 -1.99859 11.58 183 180 177
0.894352 -1.99514 11.56 183 180 177
0.906221 -1.99341 11.55 184 181 178
0.918068 -1.99169 11.54 185 182 179
0.929893 -1.98996 11.53 186 183 180
0.941696 -1.98823 11.52 186 183 180
0.953478 -1.98651 11.51 186 183 180
0.965237 -1.98478 11.5 186 183 180
0.976975 -1.98306 11.49 185 181 181
0.988691 -1.98133 11.48 184 180 180
1.00038 -1.9796 11.47 183 179 179
1.01294 -1.9796 11.47 184 180 180
1.0246 -1.97788 11.46 185 181 181
1.03624 -1.97615 11.45 185 181 181
1.04877 -1.97615 11.45 185 181 181
1.06131 -1.97615 11.45 182 178 178
1.07384 -1.97615 11.45 182 178 178
1.08542 -1.97443 11.44 183 179 179
1.09699 -1.9727 11.43 185 181 181
1.10853 -1.97097 11.42 183 179 179
1.12005 -1.96925 11.41 184 180 180
1.13253 -1.96925 11.41 184 180 180
1.14502 -1.96925 11.41 185 181 181
1.15751 -1.96925 11.41 185 181 181
1.17 -1.96925 11.41 186 182 182
1.18353 -1.97097 11.42 185 181 181
1.19708 -1.9727 11.43 184 180 180
1.20959 -1.9727 11.43 183 179 179
1.22317 -1.97443 11.44 183 179 179
1.23677 -1.97615 11.45 179 175 175
1.2493 -1.97615 11.45 179 175 175
1.26184 -1.97615 11.45 182 178 178
1.27437 -1.97615 11.45 183 179 179
1.2869 -1.97615 11.45 186 182 182
1.30057 -1.97788 11.46 176 172 172
1.31312 -1.97788 11.46 173 169 169
1.3245 -1.97615 11.45 175 173 174
1.33704 -1.97615 11.45 175 173 174
1.34839 -1.97443 11.44 172 171 175
1.36091 -1.97443 11.44 169 168 172
1.37103 -1.97097 11.42 160 167 171
1.38353 -1.97097 11.42 160 167 171
1.39481 -1.96925 11.41 153 166 172
1.4073 -1.96925 11.41 154 167 173
1.41979 -1.96925 11.41 151 165 173
1.43354 -1.97097 11.42 151 165 173
1.4473 -1.9727 11.43 153 167 177
1.46109 -1.97443 11.44 153 167 177
1.4749 -1.97615 11.45 157 171 179
1.48873 -1.97788 11.46 158 172 180
1.50259 -1.9796 11.47 163 172 181
1.51514 -1.9796 11.47 164 173 182
1.5277 -1.9796 11.47 171 174 177
1.54025 -1.9796 11.47 182 185 188
1.5501 -1.97615 11.45 188 187 184
1.56263 -1.97615 11.45 188 187 184
1.57241 -1.9727 11.43 194 189 184
1.58215 -1.96925 11.41 194 189 184
1.59185 -1.9658 11.39 196 190 183
1.6015 -1.96235 11.37 196 190 183
1.60968 -1.95717 11.34 196 190 183
1.61924 -1.95372 11.32 197 191 184
1.6273 -1.94854 11.29 194 188 181
1.6353 -1.94336 11.26 188 182 175
1.64324 -1.93818 11.23 183 182 179
1.64964 -1.93128 11.19 195 194 191
0 -0 0 136 140 154
0 -0 0 179 182 185
0 -0 0 170 173 176
0 -0 0 170 174 174
0 -0 0 171 175 175
0 -0 0 178 178 178
0 -0 0 179 179 179
0 -0 0 182 180 180
0 -0 0 182 180 180
0.735022 -2.06822 12.06 182 181 178
0.746361 -2.06308 12.03 182 181 178
0.755741 -2.05279 11.97 181 180 177
0.765632 -2.04421 11.92 180 179 176
0 -0 0 180 179 176
0.785085 -2.02706 11.82 182 181 178
0.793973 -2.01677 11.76 178 177 174
0.804101 -2.00991 11.72 182 181 178
0.815535 -2.00648 11.7 182 181 178
0.826926 -2.00305 11.68 183 182 179
0.838273 -1.99962 11.66 185 182 179
0.849576 -1.99619 11.64 184 181 178
0.860836 -1.99276 11.62 183 180 177
0.872052 -1.98933 11.6 182 179 176
0.883986 -1.98762 11.59 182 179 176
0.894352 -1.98247 11.56 184 181 178
0.906221 -1.98076 11.55 184 181 178
0.917272 -1.97733 11.53 185 182 179
0.929087 -1.97561 11.52 187 184 181
0.940879 -1.9739 11.51 186 183 180
0.952649 -1.97219 11.5 185 182 179
0.965237 -1.97219 11.5 185 182 179
0.976125 -1.96876 11.48 185 182 179
0.988691 -1.96876 11.48 184 181 178
1.00038 -1.96704 11.47 184 180 180
1.01206 -1.96533 11.46 185 181 181
1.0246 -1.96533 11.46 185 181 181
1.03714 -1.96533 11.46 184 180 180
1.04877 -1.96361 11.45 184 180 180
1.06131 -1.96361 11.45 183 179 179
1.07384 -1.96361 11.45 183 179 179
1.08542 -1.9619 11.44 183 179 179
1.09699 -1.96018 11.43 183 179 179
1.1095 -1.96018 11.43 180 176 176
1.12103 -1.95847 11.42 185 181 181
1.13353 -1.95847 11.42 185 181 181
1.14603 -1.95847 11.42 185 181 181
1.15954 -1.96018 11.43 185 181 181
1.17205 -1.96018 11.43 186 182 182
1.1856 -1.9619 11.44 184 180 180
1.19917 -1.96361 11.45 183 179 179
1.2117 -1.96361 11.45 184 180 180
1.22531 -1.96533 11.46 184 180 180
1.23785 -1.96533 11.46 183 179 179
1.25149 -1.96704 11.47 184 180 180
1.26404 -1.96704 11.47 184 180 180
1.2766 -1.96704 11.47 184 180 180
1.28915 -1.96704 11.47 184 180 180
1.30171 -1.96704 11.47 177 173 173
1.31426 -1.96704 11.47 170 166 166
1.32566 -1.96533 11.46 174 172 173
1.3382 -1.96533 11.46 175 173 174
1.34957 -1.96361 11.45 164 163 167
1.3621 -1.96361 11.45 167 166 170
1.37343 -1.9619 11.44 161 168 172
1.38475 -1.96018 11.43 161 168 172
1.39726 -1.96018 11.43 153 166 172
1.40977 -1.96018 11.43 155 168 174
1.42228 -1.96018 11.43 152 166 174
1.43605 -1.9619 11.44 151 165 173
1.44983 -1.96361 11.45 151 168 175
1.46237 -1.96361 11.45 154 171 178
1.47748 -1.96704 11.47 158 172 180
1.49133 -1.96876 11.48 158 172 180
1.50521 -1.97047 11.49 161 173 181
1.51911 -1.97219 11.5 162 174 182
1.53169 -1.97219 11.5 171 176 179
1.54294 -1.97047 11.49 182 187 190
1.55281 -1.96704 11.47 185 186 183
1.564 -1.96533 11.46 183 184 181
1.57517 -1.96361 11.45 191 186 181
1.58354 -1.95847 11.42 193 188 183
1.59464 -1.95675 11.41 193 189 182
1.60291 -1.95161 11.38 194 190 183
1.6111 -1.94646 11.35 194 190 183
1.62067 -1.94303 11.33 193 189 182
1.62874 -1.93789 11.3 191 187 180
1.63676 -1.93274 11.27 189 185 178
1.6447 -1.9276 11.24 185 184 181
1.65111 -1.92074 11.2 195 194 191
0 -0 0 135 137 149
0 -0 0 181 180 184
0 -0 0 174 173 177
0 -0 0 175 175 176
0 -0 0 176 176 177
0 -0 0 180 178 178
0 -0 0 181 179 179
0 -0 0 184 180 180
0 -0 0 184 180 180
0.734412 -2.05331 12.05 184 180 180
0.746361 -2.0499 12.03 184 180 180
0.755741 -2.03968 11.97 183 180 177
0.766274 -2.03286 11.93 183 180 177
0 -0 0 183 180 177
0.785749 -2.01582 11.83 185 182 179
0.795323 -2.0073 11.78 175 172 169
0.805473 -2.00048 11.74 180 177 174
0.816232 -1.99537 11.71 184 181 178
0.828342 -1.99367 11.7 185 182 179
0.838992 -1.98856 11.67 184 181 178
0.850306 -1.98515 11.65 179 176 173
0.861577 -1.98174 11.63 182 179 176
0.872804 -1.97833 11.61 184 181 178
0.883986 -1.97492 11.59 183 180 177
0.895125 -1.97152 11.57 184 181 178
0.906221 -1.96811 11.55 184 181 178
0.917272 -1.9647 11.53 184 181 178
0.929087 -1.963 11.52 184 181 178
0.940879 -1.96129 11.51 185 182 179
0.952649 -1.95959 11.5 185 182 179
0.964398 -1.95788 11.49 186 183 180
0.976125 -1.95618 11.48 185 182 179
0.987829 -1.95448 11.47 184 181 178
1.00038 -1.95448 11.47 184 180 180
1.01206 -1.95277 11.46 184 180 180
1.0246 -1.95277 11.46 185 181 181
1.03714 -1.95277 11.46 184 180 180
1.04877 -1.95107 11.45 183 179 179
1.06131 -1.95107 11.45 183 179 179
1.07384 -1.95107 11.45 184 180 180
1.08542 -1.94936 11.44 184 180 180
1.09795 -1.94936 11.44 185 181 181
1.1095 -1.94766 11.43 179 175 175
1.12201 -1.94766 11.43 184 180 180
1.13452 -1.94766 11.43 185 181 181
1.14803 -1.94936 11.44 185 181 181
1.16056 -1.94936 11.44 184 180 180
1.1741 -1.95107 11.45 185 181 181
1.18767 -1.95277 11.46 185 181 181
1.20127 -1.95448 11.47 185 181 181
1.21488 -1.95618 11.48 184 180 180
1.22744 -1.95618 11.48 184 180 180
1.24001 -1.95618 11.48 184 180 180
1.25367 -1.95788 11.49 184 180 181
1.26514 -1.95618 11.48 185 181 182
1.27771 -1.95618 11.48 185 181 182
1.29027 -1.95618 11.48 184 180 181
1.30284 -1.95618 11.48 185 183 184
1.31426 -1.95448 11.47 178 176 177
1.32682 -1.95448 11.47 176 174 175
1.3382 -1.95277 11.46 176 174 175
1.34957 -1.95107 11.45 172 171 175
1.3621 -1.95107 11.45 171 170 174
1.37464 -1.95107 11.45 166 170 175
1.38717 -1.95107 11.45 164 168 173
1.3997 -1.95107 11.45 155 165 172
1.41223 -1.95107 11.45 158 168 175
1.42477 -1.95107 11.45 153 168 174
1.4373 -1.95107 11.45 153 168 174
1.4511 -1.95277 11.46 156 170 178
1.46492 -1.95448 11.47 157 171 179
1.47877 -1.95618 11.48 158 172 180
1.49393 -1.95959 11.5 158 172 180
1.50652 -1.95959 11.5 159 171 179
1.51911 -1.95959 11.5 161 173 181
1.53169 -1.95959 11.5 169 174 177
1.54294 -1.95788 11.49 176 181 184
1.55416 -1.95618 11.48 181 181 182
1.56536 -1.95448 11.47 181 181 182
1.57654 -1.95277 11.46 186 183 180
1.58631 -1.94936 11.44 189 186 183
1.59464 -1.94425 11.41 189 187 181
1.60431 -1.94084 11.39 189 187 181
1.61394 -1.93744 11.37 192 187 182
1.6221 -1.93232 11.34 191 186 181
1.63019 -1.92721 11.31 186 185 177
1.63821 -1.9221 11.28 185 184 176
1.64617 -1.91699 11.25 187 188 185
1.65258 -1.91017 11.21 190 191 188
0 -0 0 150 150 162
0 -0 0 182 180 186
0 -0 0 172 170 176
0 -0 0 181 181 182
0 -0 0 180 180 181
0 -0 0 179 179 180
0 -0 0 178 178 179
0 -0 0 183 179 179
0 -0 0 184 180 180
0.733803 -2.03842 12.04 184 180 180
0.74512 -2.03334 12.01 184 180 180
0.75511 -2.02487 11.96 180 177 174
0.765632 -2.0181 11.92 182 179 176
0 -0 0 183 180 177
0.785749 -2.00286 11.83 189 186 183
0.796673 -1.99778 11.8 177 174 171
0.806845 -1.99101 11.76 182 179 176
0.816929 -1.98424 11.72 184 181 178
0.828342 -1.98085 11.7 183 180 177
0.839711 -1.97747 11.68 183 180 177
0.850306 -1.97239 11.65 184 181 178
0.862318 -1.97069 11.64 185 182 179
0.872804 -1.96562 11.61 185 182 179
0.883986 -1.96223 11.59 185 182 179
0.895125 -1.95884 11.57 184 181 178
0.906221 -1.95546 11.55 184 181 178
0.918068 -1.95376 11.54 184 181 178
0.929087 -1.95038 11.52 184 181 178
0.940879 -1.94868 11.51 182 179 176
0.952649 -1.94699 11.5 183 180 177
0.965237 -1.94699 11.5 186 183 180
0.976125 -1.94361 11.48 185 182 179
0.987829 -1.94191 11.47 184 181 178
1.00038 -1.94191 11.47 184 180 180
1.01206 -1.94022 11.46 185 181 181
1.0246 -1.94022 11.46 185 181 181
1.03714 -1.94022 11.46 184 180 180
1.04877 -1.93853 11.45 184 180 180
1.06131 -1.93853 11.45 184 180 180
1.07384 -1.93853 11.45 183 181 181
1.08542 -1.93683 11.44 183 181 181
1.09795 -1.93683 11.44 183 181 181
1.11047 -1.93683 11.44 183 181 181
1.12299 -1.93683 11.44 184 182 182
1.13551 -1.93683 11.44 184 182 182
1.14904 -1.93853 11.45 183 181 181
1.16157 -1.93853 11.45 181 179 179
1.17513 -1.94022 11.46 180 178 178
1.18975 -1.94361 11.48 181 179 179
1.20336 -1.9453 11.49 181 179 179
1.217 -1.94699 11.5 182 180 180
1.22958 -1.94699 11.5 181 179 179
1.24217 -1.94699 11.5 182 180 180
1.25476 -1.94699 11.5 182 180 181
1.26624 -1.9453 11.49 182 180 181
1.27882 -1.9453 11.49 167 165 166
1.29027 -1.94361 11.48 175 173 174
1.30171 -1.94191 11.47 183 181 182
1.31426 -1.94191 11.47 182 180 181
1.32566 -1.94022 11.46 175 175 176
1.3382 -1.94022 11.46 174 174 175
1.34957 -1.93853 11.45 174 174 175
1.3621 -1.93853 11.45 173 173 174
1.37464 -1.93853 11.45 166 170 175
1.38717 -1.93853 11.45 160 164 169
1.3997 -1.93853 11.45 154 164 171
1.41223 -1.93853 11.45 158 168 175
1.42601 -1.94022 11.46 155 168 174
1.43981 -1.94191 11.47 154 167 173
1.45237 -1.94191 11.47 150 164 172
1.4662 -1.94361 11.48 147 161 169
1.48005 -1.9453 11.49 156 173 180
1.49393 -1.94699 11.5 155 172 179
1.50652 -1.94699 11.5 156 171 177
1.51911 -1.94699 11.5 158 173 179
1.53169 -1.94699 11.5 171 175 180
1.54428 -1.94699 11.5 175 179 184
1.55551 -1.9453 11.49 180 180 181
1.56536 -1.94191 11.47 181 181 182
1.57654 -1.94022 11.46 185 181 181
1.58631 -1.93683 11.44 186 182 182
1.59464 -1.93175 11.41 184 181 178
1.60431 -1.92837 11.39 183 180 177
1.61394 -1.92498 11.37 189 186 183
1.6221 -1.9199 11.34 191 188 185
1.63163 -1.91652 11.32 184 184 178
1.63966 -1.91144 11.29 177 177 171
1.64617 -1.90467 11.25 177 183 182
1.65406 -1.89959 11.22 180 186 185
0 -0 0 153 155 167
0 -0 0 181 177 183
0 -0 0 180 176 182
0 -0 0 188 186 187
0 -0 0 183 181 182
0 -0 0 183 181 182
0 -0 0 182 180 181
0 -0 0 183 179 179
0 -0 0 182 178 178
0.733803 -2.02523 12.04 182 178 178
0.74512 -2.02018 12.01 182 178 178
0.75511 -2.01177 11.96 179 175 175
0.766274 -2.00672 11.93 180 176 176
0 -0 0 182 178 178
0.786414 -1.99159 11.84 184 180 180
0.796673 -1.98486 11.8 182 175 176
0.806845 -1.97813 11.76 184 177 178
0.818323 -1.97477 11.74 186 179 180
0.82905 -1.96972 11.71 185 178 179
0.839711 -1.96467 11.68 185 178 179
0.851036 -1.96131 11.66 185 178 179
0.862318 -1.95794 11.64 187 181 179
0.873555 -1.95458 11.62 186 180 178
0.883986 -1.94953 11.59 186 180 178
0.895899 -1.94785 11.58 187 181 179
0.906221 -1.94281 11.55 187 181 179
0.918068 -1.94112 11.54 186 180 178
0.929087 -1.93776 11.52 185 179 177
0.940879 -1.93608 11.51 186 180 178
0.952649 -1.93439 11.5 186 180 178
0.965237 -1.93439 11.5 188 182 180
0.976125 -1.93103 11.48 187 181 179
0.987829 -1.92935 11.47 187 181 179
1.00038 -1.92935 11.47 185 182 179
1.01206 -1.92767 11.46 186 183 180
1.0246 -1.92767 11.46 185 181 181
1.03624 -1.92598 11.45 184 180 180
1.04877 -1.92598 11.45 184 180 180
1.06131 -1.92598 11.45 184 180 180
1.07384 -1.92598 11.45 183 181 181
1.08542 -1.9243 11.44 184 182 182
1.09795 -1.9243 11.44 184 182 182
1.11047 -1.9243 11.44 184 182 182
1.12397 -1.92598 11.45 184 182 182
1.13651 -1.92598 11.45 183 181 181
1.14904 -1.92598 11.45 182 180 180
1.16259 -1.92767 11.46 181 179 179
1.17718 -1.93103 11.48 180 178 178
1.19078 -1.93271 11.49 181 179 179
1.20441 -1.93439 11.5 181 179 179
1.217 -1.93439 11.5 181 179 179
1.23065 -1.93608 11.51 183 181 181
1.24217 -1.93439 11.5 184 182 182
1.25476 -1.93439 11.5 184 182 183
1.26735 -1.93439 11.5 181 179 180
1.27771 -1.93103 11.48 177 175 176
1.29027 -1.93103 11.48 178 176 177
1.30171 -1.92935 11.47 182 180 181
1.31312 -1.92767 11.46 175 173 174
1.32566 -1.92767 11.46 174 174 175
1.3382 -1.92767 11.46 174 174 175
1.34957 -1.92598 11.45 171 175 175
1.36329 -1.92767 11.46 169 173 173
1.37584 -1.92767 11.46 165 172 176
1.38838 -1.92767 11.46 158 165 169
1.40215 -1.92935 11.47 156 164 171
1.4147 -1.92935 11.47 157 165 172
1.42726 -1.92935 11.47 154 166 174
1.44107 -1.93103 11.48 154 166 174
1.45363 -1.93103 11.48 151 165 173
1.46748 -1.93271 11.49 150 164 172
1.48134 -1.93439 11.5 158 172 180
1.49393 -1.93439 11.5 157 171 179
1.50652 -1.93439 11.5 156 170 178
1.51911 -1.93439 11.5 157 171 179
1.53169 -1.93439 11.5 165 172 176
1.54428 -1.93439 11.5 165 172 176
1.55551 -1.93271 11.49 179 178 182
1.56536 -1.92935 11.47 181 180 184
1.57517 -1.92598 11.45 188 186 186
1.58631 -1.9243 11.44 185 183 183
1.59464 -1.91926 11.41 184 182 182
1.60431 -1.91589 11.39 185 183 183
1.61394 -1.91253 11.37 183 182 179
1.6221 -1.90748 11.34 183 182 179
1.63163 -1.90412 11.32 176 177 174
1.63966 -1.89907 11.29 175 176 173
1.64617 -1.89234 11.25 169 174 177
1.65406 -1.8873 11.22 171 176 179
0 -0 0 144 146 158
0 -0 0 174 170 176
0 -0 0 181 177 183
0 -0 0 185 183 184
0 -0 0 183 181 182
0 -0 0 182 180 181
0 -0 0 180 178 179
0 -0 0 182 178 178
0 -0 0 180 176 176
0.735022 -2.01538 12.06 180 176 176
0.745741 -2.0087 12.02 182 178 178
0.755741 -2.00034 11.97 179 172 173
0.766274 -1.99366 11.93 181 174 175
0 -0 0 184 177 178
0.786414 -1.97862 11.84 181 174 175
0.796673 -1.97193 11.8 177 170 171
0.806845 -1.96525 11.76 186 179 180
0.818323 -1.96191 11.74 194 187 188
0.829758 -1.95856 11.72 187 180 181
0.841149 -1.95522 11.7 186 180 178
0.851766 -1.95021 11.67 186 180 178
0.863058 -1.94687 11.65 195 189 187
0.873555 -1.94185 11.62 189 183 181
0.884749 -1.93851 11.6 187 182 177
0.895899 -1.93517 11.58 187 182 177
0.907005 -1.93183 11.56 187 182 177
0.918068 -1.92848 11.54 187 182 177
0.929893 -1.92681 11.53 185 180 175
0.941696 -1.92514 11.52 186 181 176
0.953478 -1.92347 11.51 186 181 176
0.965237 -1.9218 11.5 187 182 177
0.976975 -1.92013 11.49 187 181 179
0.988691 -1.91846 11.48 188 182 180
1.00038 -1.91679 11.47 186 183 180
1.01206 -1.91511 11.46 185 182 179
1.0246 -1.91511 11.46 185 181 181
1.03714 -1.91511 11.46 184 180 180
1.04877 -1.91344 11.45 183 179 179
1.06131 -1.91344 11.45 184 180 180
1.0729 -1.91177 11.44 183 181 181
1.08542 -1.91177 11.44 183 181 181
1.09795 -1.91177 11.44 183 181 181
1.11047 -1.91177 11.44 183 181 181
1.12299 -1.91177 11.44 183 181 181
1.13651 -1.91344 11.45 182 180 180
1.14904 -1.91344 11.45 183 181 181
1.1636 -1.91679 11.47 184 182 182
1.17821 -1.92013 11.49 182 180 180
1.19182 -1.9218 11.5 181 179 179
1.20545 -1.92347 11.51 181 179 179
1.21805 -1.92347 11.51 180 178 178
1.23065 -1.92347 11.51 184 182 182
1.24325 -1.92347 11.51 184 182 182
1.25476 -1.9218 11.5 184 182 182
1.26735 -1.9218 11.5 181 179 179
1.27771 -1.91846 11.48 180 178 179
1.28915 -1.91679 11.47 181 179 180
1.30057 -1.91511 11.46 176 176 177
1.31312 -1.91511 11.46 173 173 174
1.3245 -1.91344 11.45 173 173 174
1.33704 -1.91344 11.45 174 174 175
1.34957 -1.91344 11.45 170 173 176
1.36329 -1.91511 11.46 169 172 175
1.37704 -1.91679 11.47 162 169 173
1.38959 -1.91679 11.47 158 165 169
1.40337 -1.91846 11.48 156 164 171
1.41594 -1.91846 11.48 159 167 174
1.42975 -1.92013 11.49 157 166 175
1.44232 -1.92013 11.49 157 166 175
1.45617 -1.9218 11.5 158 170 178
1.46875 -1.9218 11.5 158 170 178
1.48134 -1.9218 11.5 158 172 180
1.49393 -1.9218 11.5 158 172 180
1.50652 -1.9218 11.5 159 173 181
1.51911 -1.9218 11.5 157 171 179
1.53169 -1.9218 11.5 165 171 178
1.54294 -1.92013 11.49 167 173 180
1.55416 -1.91846 11.48 181 178 182
1.564 -1.91511 11.46 175 172 176
1.57517 -1.91344 11.45 180 176 176
1.58493 -1.9101 11.43 192 188 188
1.59464 -1.90676 11.41 193 189 189
1.60431 -1.90342 11.39 185 181 181
1.61252 -1.8984 11.36 182 181 178
1.62067 -1.89339 11.33 182 181 178
1.63163 -1.89172 11.32 178 179 176
1.63966 -1.8867 11.29 175 176 173
1.64617 -1.88002 11.25 168 175 179
1.65406 -1.87501 11.22 164 171 175
0 -0 0 151 156 167
0 -0 0 176 172 178
0 -0 0 178 174 180
0 -0 0 181 179 180
0 -0 0 183 181 182
0 -0 0 178 176 177
0 -0 0 180 178 179
0 -0 0 183 179 179
0 -0 0 182 178 178
0 -0 0 180 176 176
0.747602 -2.00051 12.05 185 181 181
0.757004 -1.99055 11.99 185 178 179
0 -0 0 185 178 179
0 -0 0 182 176 174
0.787078 -1.96731 11.85 182 176 174
0.796673 -1.95901 11.8 187 181 179
0.806845 -1.95237 11.76 191 185 183
0.818323 -1.94905 11.74 189 183 181
0.82905 -1.94407 11.71 188 182 180
0.841149 -1.94241 11.7 189 183 181
0.851766 -1.93742 11.67 189 183 181
0.863058 -1.9341 11.65 191 185 183
0.874307 -1.93078 11.63 188 182 180
0.885512 -1.92746 11.61 187 182 177
0.896673 -1.92414 11.59 182 177 172
0.90779 -1.92082 11.57 179 174 169
0.918863 -1.9175 11.55 187 182 177
0.9307 -1.91584 11.54 187 182 177
0.942514 -1.91418 11.53 182 177 172
0.954306 -1.91252 11.52 181 176 171
0.965237 -1.9092 11.5 186 181 176
0.977825 -1.9092 11.5 187 182 177
0.989552 -1.90754 11.49 187 182 177
1.00126 -1.90588 11.48 184 181 178
1.01294 -1.90422 11.47 186 183 180
1.02549 -1.90422 11.47 185 182 179
1.03714 -1.90256 11.46 185 182 179
1.04877 -1.9009 11.45 184 180 180
1.06131 -1.9009 11.45 184 180 180
1.07384 -1.9009 11.45 185 181 181
1.08542 -1.89924 11.44 185 181 181
1.09795 -1.89924 11.44 183 181 181
1.11144 -1.9009 11.45 183 181 181
1.12397 -1.9009 11.45 183 181 181
1.13651 -1.9009 11.45 184 182 182
1.15004 -1.90256 11.46 183 181 181
1.16461 -1.90588 11.48 184 182 182
1.17821 -1.90754 11.49 184 182 182
1.19182 -1.9092 11.5 184 182 182
