ply
format ascii 1.0
comment Created by Open3D
element vertex 1488
property double x
property double y
property double z
property uchar red
property uchar green
property uchar blue
end_header
2.51436 -1.63161 10.75 184 182 176
2.52613 -1.63161 10.75 186 184 178
2.53553 -1.63009 10.74 185 183 177
2.54729 -1.63009 10.74 183 181 175
2.55904 -1.63009 10.74 180 179 171
2.56601 -1.62706 10.72 185 184 176
2.57534 -1.62554 10.71 184 183 175
2.58707 -1.62554 10.71 184 183 175
2.59636 -1.62402 10.7 183 182 174
2.60564 -1.6225 10.69 183 182 174
2.61734 -1.6225 10.69 184 183 175
2.62658 -1.62099 10.68 185 184 176
2.6358 -1.61947 10.67 185 183 177
2.64748 -1.61947 10.67 182 180 174
2.65916 -1.61947 10.67 182 180 174
2.67084 -1.61947 10.67 183 181 175
2.68503 -1.62099 10.68 183 181 175
2.69925 -1.6225 10.69 182 180 174
2.71348 -1.62402 10.7 184 182 176
2.72774 -1.62554 10.71 183 181 175
2.73947 -1.62554 10.71 179 177 171
2.75376 -1.62706 10.72 179 177 171
2.77065 -1.63009 10.74 179 177 171
2.78241 -1.63009 10.74 178 176 170
2.79416 -1.63009 10.74 182 180 174
2.80853 -1.63161 10.75 179 177 171
2.82292 -1.63313 10.76 177 175 169
2.8347 -1.63313 10.76 176 174 168
2.84648 -1.63313 10.76 176 174 168
2.86091 -1.63465 10.77 176 174 168
2.8727 -1.63465 10.77 178 176 170
2.88449 -1.63465 10.77 176 174 168
2.89897 -1.63616 10.78 177 175 169
2.91077 -1.63616 10.78 169 167 161
2.91986 -1.63465 10.77 161 161 155
2.93165 -1.63465 10.77 169 169 163
2.94344 -1.63465 10.77 168 168 168
2.96071 -1.63768 10.79 167 167 167
2.97252 -1.63768 10.79 159 163 168
2.98433 -1.63768 10.79 145 149 154
2.99614 -1.63768 10.79 120 128 142
0 -0 0 117 129 139
0 -0 0 140 148 155
0 -0 0 148 156 163
0 -0 0 153 163 158
0 -0 0 147 157 152
0 -0 0 163 170 161
0 -0 0 164 171 162
0 -0 0 168 170 159
3.43936 -1.5967 10.52 176 178 167
3.45743 -1.59974 10.54 179 177 171
3.49201 -1.61036 10.61 178 176 170
3.52013 -1.61795 10.66 176 173 170
3.54837 -1.62554 10.71 177 174 171
3.57339 -1.63161 10.75 177 174 171
3.59849 -1.63768 10.79 177 174 171
3.62034 -1.64224 10.82 177 174 171
3.64226 -1.64679 10.85 172 169 166
3.66087 -1.64982 10.87 171 168 165
3.67614 -1.65134 10.88 171 168 165
3.68805 -1.65134 10.88 183 181 187
3.69656 -1.64982 10.87 154 152 158
1.90591 -1.70723 11.33 140 152 162
1.91492 -1.70422 11.31 151 163 173
1.9239 -1.7012 11.29 164 172 174
1.93797 -1.70271 11.3 171 179 181
1.94861 -1.7012 11.29 177 181 180
1.96097 -1.7012 11.29 177 181 180
1.96634 -1.69518 11.25 181 181 181
1.97865 -1.69518 11.25 180 180 180
0 -0 0 178 178 178
0 -0 0 178 178 178
0 -0 0 178 178 178
0 -0 0 179 179 179
0 -0 0 180 179 176
0 -0 0 180 179 176
2.02264 -1.66052 11.02 180 179 176
2.03285 -1.65901 11.01 178 177 174
2.04305 -1.65751 11 180 177 174
2.05322 -1.656 10.99 182 179 176
2.06525 -1.656 10.99 183 180 177
2.07539 -1.65449 10.98 183 180 177
2.08741 -1.65449 10.98 182 180 174
2.09751 -1.65299 10.97 183 181 175
2.1076 -1.65148 10.96 184 179 174
2.11766 -1.64997 10.95 184 179 174
2.12965 -1.64997 10.95 186 181 176
2.13968 -1.64847 10.94 185 180 175
2.14772 -1.64545 10.92 185 180 175
2.15967 -1.64545 10.92 181 176 171
2.16964 -1.64395 10.91 195 190 185
2.18158 -1.64395 10.91 194 189 184
2.19151 -1.64244 10.9 186 181 176
2.20344 -1.64244 10.9 185 180 175
2.21537 -1.64244 10.9 185 179 177
2.22526 -1.64093 10.89 185 179 177
2.23718 -1.64093 10.89 184 178 176
2.24703 -1.63942 10.88 184 178 176
2.25894 -1.63942 10.88 187 180 175
2.26877 -1.63792 10.87 190 183 178
2.28066 -1.63792 10.87 190 183 178
2.29256 -1.63792 10.87 186 179 174
2.30446 -1.63792 10.87 184 177 172
2.31423 -1.63641 10.86 187 180 175
2.32612 -1.63641 10.86 186 180 173
2.33585 -1.6349 10.85 187 181 174
2.34556 -1.6334 10.84 190 184 177
2.35743 -1.6334 10.84 179 173 166
2.36929 -1.6334 10.84 179 173 166
2.38116 -1.6334 10.84 190 184 177
2.39082 -1.63189 10.83 189 183 176
2.40045 -1.63038 10.82 189 183 176
2.41007 -1.62888 10.81 193 188 178
2.4219 -1.62888 10.81 190 185 175
2.43148 -1.62737 10.8 189 183 176
2.44104 -1.62586 10.79 190 184 177
2.45285 -1.62586 10.79 190 184 177
2.46238 -1.62436 10.78 188 182 175
2.47418 -1.62436 10.78 187 182 177
2.48367 -1.62285 10.77 188 183 178
2.49314 -1.62134 10.76 188 183 178
2.50492 -1.62134 10.76 187 182 177
2.51436 -1.61984 10.75 186 181 176
2.52378 -1.61833 10.74 187 182 177
2.53553 -1.61833 10.74 187 183 176
2.54729 -1.61833 10.74 185 181 174
2.55904 -1.61833 10.74 182 178 171
2.56601 -1.61532 10.72 186 182 175
2.57534 -1.61381 10.71 185 184 176
2.58707 -1.61381 10.71 184 183 175
2.59636 -1.6123 10.7 183 182 174
2.60564 -1.6108 10.69 182 181 173
2.61734 -1.6108 10.69 183 182 174
2.62658 -1.60929 10.68 185 184 176
2.6358 -1.60778 10.67 185 184 176
2.64748 -1.60778 10.67 182 181 173
2.66165 -1.60929 10.68 184 183 175
2.67334 -1.60929 10.68 183 182 174
2.68755 -1.6108 10.69 183 181 175
2.70177 -1.6123 10.7 183 181 175
2.71348 -1.6123 10.7 184 182 176
2.72774 -1.61381 10.71 184 182 176
2.73947 -1.61381 10.71 183 181 175
2.75633 -1.61682 10.73 180 178 172
2.77065 -1.61833 10.74 178 176 170
2.78241 -1.61833 10.74 178 176 170
2.79677 -1.61984 10.75 179 177 171
2.81115 -1.62134 10.76 179 177 171
2.82292 -1.62134 10.76 178 176 170
2.8347 -1.62134 10.76 177 175 169
2.84648 -1.62134 10.76 177 175 169
2.86091 -1.62285 10.77 176 174 168
2.87537 -1.62436 10.78 177 175 169
2.88717 -1.62436 10.78 177 175 169
2.90166 -1.62586 10.79 177 175 169
2.91347 -1.62586 10.79 173 171 165
2.92257 -1.62436 10.78 166 165 162
2.93437 -1.62436 10.78 168 167 164
2.9489 -1.62586 10.79 166 166 166
2.96071 -1.62586 10.79 167 167 167
2.97252 -1.62586 10.79 158 165 169
2.98433 -1.62586 10.79 151 158 162
2.99892 -1.62737 10.8 120 132 142
0 -0 0 115 128 141
0 -0 0 141 149 156
0 -0 0 141 149 156
0 -0 0 162 168 167
0 -0 0 156 162 161
0 -0 0 165 168 160
0 -0 0 166 169 161
0 -0 0 172 171 163
3.43282 -1.58217 10.5 177 176 168
3.45087 -1.58518 10.52 177 176 168
3.48542 -1.59573 10.59 176 175 167
3.51353 -1.60326 10.64 176 173 170
3.54174 -1.6108 10.69 177 174 171
3.57006 -1.61833 10.74 177 174 171
3.59849 -1.62586 10.79 177 174 171
3.62034 -1.63038 10.82 176 173 170
3.64561 -1.63641 10.86 171 168 165
3.66424 -1.63942 10.88 171 170 167
3.67952 -1.64093 10.89 170 169 166
3.69144 -1.64093 10.89 175 175 176
3.69996 -1.63942 10.88 158 158 159
1.90086 -1.69033 11.3 142 155 168
1.91154 -1.68884 11.29 145 158 171
1.92219 -1.68734 11.28 161 169 171
1.93111 -1.68435 11.26 166 174 176
1.94171 -1.68285 11.25 177 181 180
1.94881 -1.67837 11.22 177 181 180
1.95585 -1.67388 11.19 178 178 178
1.96634 -1.67238 11.18 178 178 178
0 -0 0 180 178 178
0 -0 0 178 176 176
0 -0 0 178 176 176
0 -0 0 178 176 176
0 -0 0 177 175 175
0 -0 0 180 178 178
2.0208 -1.64695 11.01 182 180 180
2.02916 -1.64396 10.99 180 178 178
2.04119 -1.64396 10.99 178 177 174
2.05135 -1.64247 10.98 180 179 176
2.06337 -1.64247 10.98 181 180 177
2.07539 -1.64247 10.98 181 180 177
2.08551 -1.64097 10.97 182 180 174
2.0956 -1.63947 10.96 180 178 172
2.1076 -1.63947 10.96 181 176 171
2.11766 -1.63798 10.95 181 176 171
2.1277 -1.63648 10.94 182 177 172
2.13772 -1.63499 10.93 185 180 175
2.14772 -1.63349 10.92 186 181 176
2.15967 -1.63349 10.92 185 180 175
2.17162 -1.63349 10.92 186 181 176
2.18158 -1.63199 10.91 187 182 177
2.19151 -1.6305 10.9 188 183 178
2.20344 -1.6305 10.9 187 182 177
2.21334 -1.629 10.89 187 181 179
2.22526 -1.629 10.89 186 180 178
2.23513 -1.62751 10.88 187 179 177
2.24497 -1.62601 10.87 189 181 179
2.25687 -1.62601 10.87 189 182 177
2.26877 -1.62601 10.87 190 183 178
2.27857 -1.62452 10.86 190 183 178
2.28834 -1.62302 10.85 187 180 175
2.30022 -1.62302 10.85 186 179 174
2.3121 -1.62302 10.85 187 180 175
2.32397 -1.62302 10.85 188 182 175
2.3337 -1.62152 10.84 187 181 174
2.34556 -1.62152 10.84 191 185 178
2.35743 -1.62152 10.84 197 191 184
2.36929 -1.62152 10.84 191 185 178
2.38116 -1.62152 10.84 190 184 177
2.39082 -1.62003 10.83 188 182 175
2.40267 -1.62003 10.83 187 181 174
2.4123 -1.61853 10.82 187 181 174
2.4219 -1.61704 10.81 189 183 176
2.43373 -1.61704 10.81 190 184 177
2.4433 -1.61554 10.8 190 184 177
2.45285 -1.61404 10.79 189 183 176
2.46466 -1.61404 10.79 190 184 177
2.47418 -1.61255 10.78 191 185 178
2.48367 -1.61105 10.77 189 183 176
2.49314 -1.60956 10.76 188 182 175
2.50492 -1.60956 10.76 188 182 175
2.51202 -1.60656 10.74 186 182 175
2.52378 -1.60656 10.74 187 183 176
2.53553 -1.60656 10.74 188 184 177
2.54729 -1.60656 10.74 188 184 177
2.55666 -1.60507 10.73 186 182 175
2.56601 -1.60357 10.72 185 181 174
2.57534 -1.60208 10.71 188 184 177
2.58707 -1.60208 10.71 186 182 175
2.59636 -1.60058 10.7 185 181 174
2.60807 -1.60058 10.7 185 181 174
2.61734 -1.59909 10.69 186 182 175
2.62904 -1.59909 10.69 186 182 175
2.63827 -1.59759 10.68 186 182 175
2.64996 -1.59759 10.68 186 182 175
2.66165 -1.59759 10.68 186 182 175
2.67585 -1.59909 10.69 181 177 170
2.68755 -1.59909 10.69 182 178 171
2.70177 -1.60058 10.7 186 182 175
2.71348 -1.60058 10.7 184 183 175
2.72774 -1.60208 10.71 184 183 175
2.74203 -1.60357 10.72 183 182 174
2.75633 -1.60507 10.73 182 181 173
2.77065 -1.60656 10.74 179 178 170
2.78241 -1.60656 10.74 178 177 169
2.79677 -1.60806 10.75 178 176 170
2.81115 -1.60956 10.76 180 178 172
2.82292 -1.60956 10.76 179 177 171
2.8347 -1.60956 10.76 177 175 169
2.84913 -1.61105 10.77 178 176 170
2.86091 -1.61105 10.77 176 174 168
2.87537 -1.61255 10.78 176 174 168
2.88717 -1.61255 10.78 179 177 171
2.90166 -1.61404 10.79 177 174 171
2.91347 -1.61404 10.79 175 172 169
2.92528 -1.61404 10.79 170 169 166
2.93709 -1.61404 10.79 168 167 164
2.9489 -1.61404 10.79 164 164 164
2.96071 -1.61404 10.79 160 160 160
2.97252 -1.61404 10.79 162 170 172
2.9871 -1.61554 10.8 151 159 161
2.99892 -1.61554 10.8 116 127 140
0 -0 0 134 142 149
0 -0 0 151 159 166
0 -0 0 159 159 159
0 -0 0 161 161 161
0 -0 0 162 164 158
0 -0 0 165 167 161
0 -0 0 171 170 162
3.43282 -1.57066 10.5 173 172 164
3.45087 -1.57366 10.52 175 174 166
3.47884 -1.58114 10.57 175 174 166
3.51353 -1.59161 10.64 176 173 170
3.54174 -1.59909 10.69 177 174 171
3.57006 -1.60656 10.74 176 173 170
3.59849 -1.61404 10.79 176 173 170
3.62034 -1.61853 10.82 173 170 167
3.64561 -1.62452 10.86 173 170 167
3.6676 -1.629 10.89 175 174 171
3.6829 -1.6305 10.9 170 169 166
3.69483 -1.6305 10.9 167 167 168
3.70336 -1.629 10.89 159 159 160
3.71187 -1.62751 10.88 140 143 151
1.90086 -1.67796 11.3 152 168 180
1.90815 -1.6735 11.27 155 171 183
1.91708 -1.67053 11.25 170 179 183
1.92768 -1.66905 11.24 165 174 178
1.9348 -1.66459 11.21 173 179 179
1.94186 -1.66014 11.18 174 180 180
0 -0 0 176 176 177
1.95403 -1.64974 11.11 175 175 176
0 -0 0 177 175 176
0 -0 0 180 178 179
0 -0 0 180 178 178
0 -0 0 178 176 176
0 -0 0 180 176 176
0 -0 0 183 179 179
2.01529 -1.63044 10.98 184 180 180
2.02731 -1.63044 10.98 182 178 178
2.03933 -1.63044 10.98 183 180 177
2.05135 -1.63044 10.98 183 180 177
2.06149 -1.62895 10.97 182 179 176
2.0735 -1.62895 10.97 180 177 174
2.0836 -1.62747 10.96 182 179 176
2.09369 -1.62598 10.95 180 177 174
2.10568 -1.62598 10.95 180 175 170
2.11766 -1.62598 10.95 182 177 172
2.1277 -1.6245 10.94 184 179 174
2.13772 -1.62301 10.93 186 181 176
2.14772 -1.62153 10.92 186 181 176
2.15967 -1.62153 10.92 186 181 176
2.17162 -1.62153 10.92 185 180 175
2.18158 -1.62004 10.91 184 179 174
2.19151 -1.61856 10.9 185 180 175
2.20344 -1.61856 10.9 187 182 177
2.21537 -1.61856 10.9 190 182 180
2.22322 -1.61559 10.88 189 181 179
2.23307 -1.6141 10.87 189 181 179
2.24497 -1.6141 10.87 190 182 180
2.25479 -1.61262 10.86 190 183 178
2.26459 -1.61113 10.85 190 183 178
2.27437 -1.60965 10.84 190 183 178
2.28624 -1.60965 10.84 189 182 177
2.2981 -1.60965 10.84 189 182 177
2.30997 -1.60965 10.84 189 182 177
2.32183 -1.60965 10.84 188 182 175
2.3337 -1.60965 10.84 187 181 174
2.34556 -1.60965 10.84 190 184 177
2.35743 -1.60965 10.84 189 183 176
2.36929 -1.60965 10.84 188 182 175
2.37896 -1.60817 10.83 187 181 174
2.39082 -1.60817 10.83 187 181 174
2.40045 -1.60668 10.82 187 181 174
2.41007 -1.6052 10.81 186 180 173
2.4219 -1.6052 10.81 189 183 176
2.43373 -1.6052 10.81 190 184 177
2.4433 -1.60371 10.8 189 183 176
2.45285 -1.60223 10.79 189 183 176
2.46466 -1.60223 10.79 189 183 176
2.47418 -1.60074 10.78 190 184 177
2.48367 -1.59926 10.77 189 183 176
2.49314 -1.59777 10.76 187 181 174
2.50259 -1.59629 10.75 188 182 175
2.51202 -1.5948 10.74 187 183 176
2.52378 -1.5948 10.74 187 183 176
2.53317 -1.59332 10.73 187 183 176
2.54492 -1.59332 10.73 188 184 177
2.55428 -1.59183 10.72 187 183 176
2.56362 -1.59035 10.71 186 182 175
2.57534 -1.59035 10.71 185 181 174
2.58707 -1.59035 10.71 184 180 173
2.59879 -1.59035 10.71 186 182 175
2.61051 -1.59035 10.71 188 184 177
2.61979 -1.58886 10.7 188 184 177
2.62904 -1.58738 10.69 187 183 176
2.64074 -1.58738 10.69 185 181 174
2.65244 -1.58738 10.69 182 178 171
2.66414 -1.58738 10.69 181 177 170
2.67585 -1.58738 10.69 181 177 170
2.68755 -1.58738 10.69 181 177 170
2.70177 -1.58886 10.7 181 177 170
2.71602 -1.59035 10.71 182 178 171
2.72774 -1.59035 10.71 184 180 173
2.74203 -1.59183 10.72 182 178 171
2.75633 -1.59332 10.73 182 178 171
2.77065 -1.5948 10.74 180 179 171
2.785 -1.59629 10.75 179 178 170
2.79937 -1.59777 10.76 180 178 172
2.81115 -1.59777 10.76 182 180 174
2.82292 -1.59777 10.76 180 178 172
2.83734 -1.59926 10.77 178 176 170
2.84913 -1.59926 10.77 177 175 169
2.86357 -1.60074 10.78 176 174 168
2.87537 -1.60074 10.78 175 173 167
2.88985 -1.60223 10.79 179 177 171
2.90166 -1.60223 10.79 176 173 170
2.91347 -1.60223 10.79 173 170 167
2.92528 -1.60223 10.79 170 168 168
2.93709 -1.60223 10.79 168 166 166
2.95163 -1.60371 10.8 164 164 165
2.96346 -1.60371 10.8 160 160 161
2.97528 -1.60371 10.8 158 164 171
2.9871 -1.60371 10.8 154 160 167
3.0017 -1.6052 10.81 105 116 129
0 -0 0 114 119 128
0 -0 0 126 131 140
0 -0 0 141 139 139
0 -0 0 155 153 153
0 -0 0 173 173 167
0 -0 0 169 169 163
0 -0 0 171 170 162
0 -0 0 172 171 163
3.45087 -1.56213 10.52 173 172 164
3.48213 -1.57104 10.58 175 174 166
3.51683 -1.58144 10.65 176 174 168
3.54837 -1.59035 10.71 177 175 169
3.57671 -1.59777 10.76 177 175 169
3.60183 -1.60371 10.8 178 176 170
3.62703 -1.60965 10.84 176 174 168
3.64897 -1.6141 10.87 175 173 167
3.6676 -1.61707 10.89 175 173 167
3.6829 -1.61856 10.9 171 169 163
3.69483 -1.61856 10.9 168 166 166
3.70676 -1.61856 10.9 166 164 164
3.71528 -1.61707 10.89 148 151 159
1.89582 -1.66116 11.27 140 156 168
1.89969 -1.65379 11.22 152 168 180
1.90174 -1.64494 11.16 170 181 185
1.91053 -1.642 11.14 165 176 180
1.921 -1.64052 11.13 173 179 179
1.9245 -1.63315 11.08 173 179 179
0 -0 0 178 178 179
0 -0 0 176 176 177
0 -0 0 176 174 175
0 -0 0 180 178 179
0 -0 0 181 179 179
0 -0 0 182 180 180
0 -0 0 184 180 180
0 -0 0 183 179 179
2.01346 -1.61694 10.97 183 179 179
2.02731 -1.61841 10.98 183 179 179
2.03747 -1.61694 10.97 184 180 180
2.04761 -1.61546 10.96 185 181 181
2.06149 -1.61694 10.97 180 177 174
2.07161 -1.61546 10.96 179 176 173
2.0817 -1.61399 10.95 178 175 172
2.09369 -1.61399 10.95 182 179 176
2.10568 -1.61399 10.95 180 175 170
2.11573 -1.61252 10.94 182 177 172
2.1277 -1.61252 10.94 186 181 176
2.13772 -1.61104 10.93 188 183 178
2.14969 -1.61104 10.93 188 183 178
2.15967 -1.60957 10.92 187 182 177
2.17162 -1.60957 10.92 186 181 176
2.18358 -1.60957 10.92 180 175 170
2.19352 -1.60809 10.91 187 182 177
2.20344 -1.60662 10.9 189 184 179
2.21537 -1.60662 10.9 191 184 179
2.22322 -1.60367 10.88 189 182 177
2.23307 -1.6022 10.87 189 182 177
2.2429 -1.60072 10.86 189 182 177
2.25272 -1.59925 10.85 188 181 176
2.2625 -1.59778 10.84 189 182 177
2.27437 -1.59778 10.84 190 183 178
2.28413 -1.5963 10.83 190 183 178
2.29598 -1.5963 10.83 190 184 177
2.30784 -1.5963 10.83 189 183 176
2.31755 -1.59483 10.82 187 181 174
2.32939 -1.59483 10.82 187 181 174
2.34123 -1.59483 10.82 187 181 174
2.35525 -1.5963 10.83 188 182 175
2.36492 -1.59483 10.82 188 182 175
2.37677 -1.59483 10.82 188 182 175
2.38861 -1.59483 10.82 188 182 175
2.40045 -1.59483 10.82 188 182 175
2.41007 -1.59335 10.81 188 182 175
2.4219 -1.59335 10.81 188 182 175
2.43148 -1.59188 10.8 189 183 176
2.44104 -1.59041 10.79 189 183 176
2.45285 -1.59041 10.79 187 181 174
2.46238 -1.58893 10.78 186 180 173
2.47188 -1.58746 10.77 190 184 177
2.48136 -1.58598 10.76 188 182 175
2.49083 -1.58451 10.75 187 181 174
2.50026 -1.58304 10.74 187 181 174
2.51202 -1.58304 10.74 185 181 174
2.52143 -1.58156 10.73 185 181 174
2.53081 -1.58009 10.72 187 183 176
2.54017 -1.57861 10.71 188 184 177
2.5519 -1.57861 10.71 187 183 176
2.56362 -1.57861 10.71 185 181 174
2.57534 -1.57861 10.71 185 181 174
2.58707 -1.57861 10.71 185 181 174
2.59879 -1.57861 10.71 186 182 175
2.61051 -1.57861 10.71 187 183 176
2.61979 -1.57714 10.7 187 183 176
2.6315 -1.57714 10.7 184 180 173
2.64074 -1.57567 10.69 182 178 171
2.65244 -1.57567 10.69 184 180 173
2.66414 -1.57567 10.69 184 180 173
2.67585 -1.57567 10.69 185 181 174
2.68755 -1.57567 10.69 186 183 173
2.70177 -1.57714 10.7 186 183 173
2.71348 -1.57714 10.7 181 178 168
2.72774 -1.57861 10.71 181 178 168
2.73947 -1.57861 10.71 181 178 168
2.75633 -1.58156 10.73 184 181 171
2.77065 -1.58304 10.74 184 180 173
2.785 -1.58451 10.75 184 180 173
2.79937 -1.58598 10.76 182 180 174
2.81115 -1.58598 10.76 182 180 174
2.82555 -1.58746 10.77 180 180 174
2.83734 -1.58746 10.77 178 178 172
2.85177 -1.58893 10.78 178 178 172
2.86623 -1.59041 10.79 174 174 168
2.87804 -1.59041 10.79 174 173 170
2.88985 -1.59041 10.79 177 176 173
2.90166 -1.59041 10.79 173 172 169
2.91347 -1.59041 10.79 171 170 167
2.92799 -1.59188 10.8 171 169 169
2.93981 -1.59188 10.8 169 167 167
2.95437 -1.59335 10.81 161 164 167
2.9662 -1.59335 10.81 159 162 165
2.97803 -1.59335 10.81 159 162 170
2.98987 -1.59335 10.81 152 155 163
3.0017 -1.59335 10.81 109 120 133
0 -0 0 141 148 159
0 -0 0 173 171 171
0 -0 0 181 179 179
0 -0 0 169 169 163
0 -0 0 166 166 160
0 -0 0 168 167 159
3.43282 -1.54766 10.5 170 169 161
3.45415 -1.55208 10.53 175 174 166
3.48542 -1.56093 10.59 175 174 166
3.52013 -1.57124 10.66 175 173 167
3.54837 -1.57861 10.71 176 174 168
3.58003 -1.58746 10.77 177 175 169
3.60516 -1.59335 10.81 179 177 171
3.62703 -1.59778 10.84 176 174 168
3.65233 -1.60367 10.88 175 173 167
3.67097 -1.60662 10.9 175 173 167
3.68628 -1.60809 10.91 171 169 163
3.69822 -1.60809 10.91 167 165 165
3.71017 -1.60809 10.91 163 161 161
3.7187 -1.60662 10.9 161 164 172
1.89245 -1.64589 11.25 143 159 171
0 -0 0 152 168 180
0 -0 0 160 174 177
0 -0 0 163 177 180
0 -0 0 173 179 179
1.91581 -1.6137 11.03 173 179 179
0 -0 0 175 179 179
0 -0 0 175 179 179
0 -0 0 180 178 179
0 -0 0 181 179 180
0 -0 0 181 179 179
0 -0 0 181 179 179
0 -0 0 182 178 178
0 -0 0 182 178 178
2.01162 -1.60346 10.96 183 179 179
2.02362 -1.60346 10.96 183 179 179
2.03376 -1.602 10.95 185 178 179
2.04575 -1.602 10.95 184 177 178
2.05773 -1.602 10.95 182 176 174
2.06972 -1.602 10.95 184 178 176
2.0798 -1.60053 10.94 182 176 174
2.09178 -1.60053 10.94 185 179 177
2.10375 -1.60053 10.94 184 179 174
2.11573 -1.60053 10.94 181 176 171
2.12576 -1.59907 10.93 185 180 175
2.13577 -1.59761 10.92 186 181 176
2.14772 -1.59761 10.92 187 182 177
2.15967 -1.59761 10.92 187 182 177
2.17162 -1.59761 10.92 187 181 179
2.18358 -1.59761 10.92 188 182 180
2.19352 -1.59614 10.91 188 183 178
2.20344 -1.59468 10.9 188 183 178
2.21334 -1.59322 10.89 190 183 178
2.22322 -1.59175 10.88 190 183 178
2.23307 -1.59029 10.87 188 181 176
2.2429 -1.58883 10.86 188 181 176
2.25272 -1.58737 10.85 189 182 177
2.2625 -1.5859 10.84 190 183 178
2.27227 -1.58444 10.83 191 185 178
2.28202 -1.58298 10.82 191 185 178
2.29386 -1.58298 10.82 191 185 178
2.3057 -1.58298 10.82 190 184 177
2.31541 -1.58151 10.81 188 182 175
2.32724 -1.58151 10.81 188 182 175
2.34123 -1.58298 10.82 188 182 175
2.3509 -1.58151 10.81 189 183 176
2.36274 -1.58151 10.81 189 183 176
2.37457 -1.58151 10.81 189 183 176
2.3864 -1.58151 10.81 189 183 176
2.39823 -1.58151 10.81 189 183 176
2.40784 -1.58005 10.8 189 183 176
2.41966 -1.58005 10.8 189 183 176
2.42923 -1.57859 10.79 191 185 178
2.44104 -1.57859 10.79 190 184 177
2.45058 -1.57712 10.78 187 181 174
2.46009 -1.57566 10.77 184 178 171
2.46959 -1.5742 10.76 187 181 174
2.47906 -1.57274 10.75 188 182 175
2.48851 -1.57127 10.74 186 182 175
2.50026 -1.57127 10.74 186 182 175
2.50734 -1.56835 10.72 187 183 176
2.51673 -1.56688 10.71 188 184 177
2.52845 -1.56688 10.71 188 184 177
2.54017 -1.56688 10.71 188 184 177
2.5519 -1.56688 10.71 187 183 176
2.56362 -1.56688 10.71 186 182 175
2.57534 -1.56688 10.71 186 182 175
2.58707 -1.56688 10.71 184 180 173
2.59879 -1.56688 10.71 185 181 174
2.61051 -1.56688 10.71 184 180 173
2.62224 -1.56688 10.71 184 180 173
2.6315 -1.56542 10.7 184 180 173
2.64321 -1.56542 10.7 184 180 173
2.65492 -1.56542 10.7 188 184 177
2.66664 -1.56542 10.7 185 184 176
2.67835 -1.56542 10.7 184 183 175
2.69006 -1.56542 10.7 183 182 174
2.70177 -1.56542 10.7 182 181 173
2.71348 -1.56542 10.7 179 178 170
2.72774 -1.56688 10.71 180 179 171
2.73947 -1.56688 10.71 180 179 171
2.75633 -1.56981 10.73 183 182 174
2.77065 -1.57127 10.74 183 182 174
2.785 -1.57274 10.75 183 182 174
2.79937 -1.5742 10.76 181 181 175
2.81115 -1.5742 10.76 180 180 174
2.82555 -1.57566 10.77 178 178 172
2.83997 -1.57712 10.78 178 178 172
2.85442 -1.57859 10.79 176 176 170
2.86623 -1.57859 10.79 174 174 168
2.8807 -1.58005 10.8 175 175 169
2.89253 -1.58005 10.8 176 176 170
2.90435 -1.58005 10.8 176 175 172
2.91887 -1.58151 10.81 175 174 171
2.9307 -1.58151 10.81 172 172 172
2.94254 -1.58151 10.81 169 169 169
2.95437 -1.58151 10.81 163 166 169
2.9662 -1.58151 10.81 162 165 168
2.97803 -1.58151 10.81 154 157 165
2.98987 -1.58151 10.81 144 147 155
3.0017 -1.58151 10.81 108 119 132
0 -0 0 118 126 140
0 -0 0 146 145 149
0 -0 0 157 156 160
0 -0 0 164 164 158
0 -0 0 164 164 158
0 -0 0 166 165 157
0 -0 0 169 168 160
3.45743 -1.54201 10.54 173 172 164
3.48542 -1.54933 10.59 175 174 166
3.52343 -1.56103 10.67 176 175 167
3.55499 -1.56981 10.73 176 175 167
3.58668 -1.57859 10.79 178 177 169
3.6085 -1.58298 10.82 178 177 169
3.63372 -1.58883 10.86 176 175 167
3.65568 -1.59322 10.89 175 174 166
3.67097 -1.59468 10.9 175 174 166
3.68628 -1.59614 10.91 172 171 163
3.69822 -1.59614 10.91 168 167 164
3.71017 -1.59614 10.91 160 159 156
3.7187 -1.59468 10.9 167 170 178
0 -0 0 118 135 144
0 -0 0 159 176 185
0 -0 0 167 181 184
0 -0 0 161 175 178
1.89511 -1.59436 10.98 171 177 177
1.90018 -1.58855 10.94 173 179 179
0 -0 0 175 179 179
0 -0 0 175 179 179
0 -0 0 178 178 179
1.9463 -1.5871 10.93 179 179 180
1.9708 -1.59726 11 181 179 179
0 -0 0 181 179 179
0 -0 0 182 178 178
0 -0 0 180 176 176
0 -0 0 185 178 179
2.02362 -1.59145 10.96 185 178 179
2.03376 -1.59 10.95 182 175 176
2.04575 -1.59 10.95 180 173 174
2.05773 -1.59 10.95 182 175 176
2.06783 -1.58855 10.94 185 178 179
2.0779 -1.5871 10.93 184 178 176
2.08795 -1.58565 10.92 185 179 177
2.09991 -1.58565 10.92 184 178 176
2.11186 -1.58565 10.92 182 176 174
2.12381 -1.58565 10.92 185 180 175
2.13577 -1.58565 10.92 186 181 176
2.14772 -1.58565 10.92 186 181 176
2.15967 -1.58565 10.92 185 180 175
2.17162 -1.58565 10.92 187 182 177
2.18158 -1.58419 10.91 188 183 178
2.19151 -1.58274 10.9 186 181 176
2.20344 -1.58274 10.9 187 182 177
2.21334 -1.58129 10.89 189 182 177
2.22322 -1.57984 10.88 189 182 177
2.23307 -1.57838 10.87 189 182 177
2.24084 -1.57548 10.85 190 183 178
2.25064 -1.57403 10.84 192 184 177
2.2625 -1.57403 10.84 193 185 178
2.27017 -1.57112 10.82 192 184 177
2.28202 -1.57112 10.82 192 184 177
2.29174 -1.56967 10.81 191 184 174
2.30357 -1.56967 10.81 191 184 174
2.31541 -1.56967 10.81 189 184 174
2.32724 -1.56967 10.81 190 185 175
2.33907 -1.56967 10.81 190 185 175
2.3509 -1.56967 10.81 189 184 174
2.36274 -1.56967 10.81 189 184 174
2.37457 -1.56967 10.81 189 184 174
2.3864 -1.56967 10.81 189 183 176
2.39602 -1.56822 10.8 188 182 175
2.40561 -1.56677 10.79 186 180 173
2.41742 -1.56677 10.79 184 178 171
2.42698 -1.56532 10.78 187 183 176
2.43652 -1.56386 10.77 189 185 178
2.44603 -1.56241 10.76 186 182 175
2.45781 -1.56241 10.76 186 182 175
2.46729 -1.56096 10.75 186 182 175
2.47675 -1.55951 10.74 187 183 176
2.48851 -1.55951 10.74 188 184 177
2.49561 -1.5566 10.72 187 183 176
2.505 -1.55515 10.71 188 184 177
2.51673 -1.55515 10.71 187 183 176
2.52845 -1.55515 10.71 188 184 177
2.5378 -1.5537 10.7 188 184 177
2.5519 -1.55515 10.71 188 184 177
2.56362 -1.55515 10.71 187 183 176
2.57534 -1.55515 10.71 187 183 176
2.58707 -1.55515 10.71 185 181 174
2.59879 -1.55515 10.71 184 180 173
2.61295 -1.5566 10.72 186 182 175
2.62224 -1.55515 10.71 187 183 176
2.63396 -1.55515 10.71 185 181 174
2.64568 -1.55515 10.71 183 182 174
2.65492 -1.5537 10.7 185 184 176
2.66664 -1.5537 10.7 185 184 176
2.67835 -1.5537 10.7 185 184 176
2.68755 -1.55225 10.69 182 181 173
2.70177 -1.5537 10.7 179 178 170
2.71095 -1.55225 10.69 180 179 171
2.7252 -1.5537 10.7 182 181 173
2.73947 -1.55515 10.71 183 182 174
2.75376 -1.5566 10.72 183 182 174
2.77065 -1.55951 10.74 183 181 175
2.785 -1.56096 10.75 182 180 174
2.79937 -1.56241 10.76 181 181 175
2.81115 -1.56241 10.76 182 182 176
2.82555 -1.56386 10.77 179 181 175
2.84261 -1.56677 10.79 174 176 170
2.85442 -1.56677 10.79 172 174 168
2.86888 -1.56822 10.8 173 175 169
2.88337 -1.56967 10.81 173 175 169
2.8952 -1.56967 10.81 173 175 169
2.90704 -1.56967 10.81 175 177 171
2.91887 -1.56967 10.81 175 177 171
2.93341 -1.57112 10.82 172 173 170
2.94526 -1.57112 10.82 171 172 169
2.95437 -1.56967 10.81 162 165 168
2.9662 -1.56967 10.81 163 166 169
2.97803 -1.56967 10.81 142 148 155
2.98987 -1.56967 10.81 158 164 171
0 -0 0 113 124 142
0 -0 0 135 138 146
0 -0 0 150 153 161
0 -0 0 155 159 158
0 -0 0 159 163 162
0 -0 0 166 165 157
0 -0 0 169 168 160
0 -0 0 175 174 166
0 -0 0 175 174 166
3.53004 -1.55225 10.69 176 175 167
3.55831 -1.55951 10.74 176 175 167
3.58668 -1.56677 10.79 177 176 168
3.61517 -1.57403 10.84 176 175 167
3.63707 -1.57838 10.87 177 173 166
3.65233 -1.57984 10.88 177 173 166
3.67097 -1.58274 10.9 175 171 164
3.68628 -1.58419 10.91 174 170 163
3.69822 -1.58419 10.91 171 169 163
3.70676 -1.58274 10.9 170 168 162
3.7187 -1.58274 10.9 171 173 178
3.73063 -1.58274 10.9 151 153 158
0 -0 0 140 154 164
0 -0 0 165 179 189
0 -0 0 156 167 171
0 -0 0 156 167 171
0 -0 0 170 176 176
0 -0 0 173 179 179
0 -0 0 182 186 186
0 -0 0 177 181 181
0 -0 0 178 178 179
0 -0 0 178 178 179
0 -0 0 181 179 179
0 -0 0 182 180 180
0 -0 0 184 180 180
0 -0 0 184 180 180
0 -0 0 183 179 179
2.02362 -1.57945 10.96 182 178 178
2.03005 -1.57512 10.93 182 175 176
2.04388 -1.57657 10.94 188 181 182
2.05397 -1.57512 10.93 186 179 180
2.06783 -1.57657 10.94 185 178 179
2.076 -1.57368 10.92 184 178 176
2.08795 -1.57368 10.92 185 179 177
2.09991 -1.57368 10.92 185 179 177
2.11186 -1.57368 10.92 184 178 176
2.12381 -1.57368 10.92 185 179 177
2.13577 -1.57368 10.92 185 179 177
2.14772 -1.57368 10.92 185 180 175
2.15967 -1.57368 10.92 185 180 175
2.17162 -1.57368 10.92 186 181 176
2.18158 -1.57224 10.91 187 182 177
2.19352 -1.57224 10.91 186 181 176
2.20344 -1.5708 10.9 186 181 176
2.21131 -1.56792 10.88 188 181 176
2.22117 -1.56648 10.87 188 181 176
2.23307 -1.56648 10.87 189 182 177
2.24084 -1.5636 10.85 190 183 178
2.25064 -1.56215 10.84 189 183 176
2.26042 -1.56071 10.83 190 184 177
2.27017 -1.55927 10.82 191 184 174
2.27991 -1.55783 10.81 190 183 173
2.29174 -1.55783 10.81 189 182 172
2.30357 -1.55783 10.81 189 182 172
2.31541 -1.55783 10.81 188 183 173
2.32509 -1.55639 10.8 189 184 174
2.33691 -1.55639 10.8 190 185 175
2.34873 -1.55639 10.8 191 186 176
2.35837 -1.55495 10.79 189 184 174
2.37018 -1.55495 10.79 189 184 174
2.38199 -1.55495 10.79 188 183 173
2.3938 -1.55495 10.79 186 181 171
2.40338 -1.55351 10.78 183 177 170
2.41518 -1.55351 10.78 189 183 176
2.42473 -1.55207 10.77 189 183 176
2.43425 -1.55063 10.76 191 185 178
2.44603 -1.55063 10.76 188 184 177
2.45552 -1.54919 10.75 187 183 176
2.465 -1.54774 10.74 186 182 175
2.47445 -1.5463 10.73 187 183 176
2.48387 -1.54486 10.72 187 183 176
2.49561 -1.54486 10.72 187 183 176
2.505 -1.54342 10.71 187 183 176
2.51673 -1.54342 10.71 187 183 176
2.52845 -1.54342 10.71 187 182 177
2.5378 -1.54198 10.7 187 182 177
2.5519 -1.54342 10.71 187 182 177
2.56362 -1.54342 10.71 187 182 177
2.57534 -1.54342 10.71 186 181 176
2.58707 -1.54342 10.71 185 180 175
2.60122 -1.54486 10.72 182 180 174
2.61539 -1.5463 10.73 183 181 175
2.62468 -1.54486 10.72 184 183 175
2.63642 -1.54486 10.72 184 183 175
2.64568 -1.54342 10.71 182 181 173
2.65492 -1.54198 10.7 180 179 171
2.66664 -1.54198 10.7 182 181 173
2.67835 -1.54198 10.7 183 182 174
2.68755 -1.54054 10.69 182 181 173
2.69925 -1.54054 10.69 179 178 170
2.71095 -1.54054 10.69 180 179 171
2.7252 -1.54198 10.7 182 181 173
2.73947 -1.54342 10.71 182 181 173
2.75376 -1.54486 10.72 180 179 171
2.77065 -1.54774 10.74 180 178 172
2.785 -1.54919 10.75 180 178 172
2.79937 -1.55063 10.76 178 178 172
2.81376 -1.55207 10.77 182 182 176
2.82817 -1.55351 10.78 178 178 172
2.84261 -1.55495 10.79 175 175 169
2.85706 -1.55639 10.8 174 174 168
2.87154 -1.55783 10.81 175 175 169
2.88337 -1.55783 10.81 175 175 169
2.89788 -1.55927 10.82 176 176 170
2.90973 -1.55927 10.82 177 177 171
2.92427 -1.56071 10.83 176 176 170
2.93612 -1.56071 10.83 169 170 167
2.94798 -1.56071 10.83 169 170 167
2.95983 -1.56071 10.83 160 166 166
2.97169 -1.56071 10.83 156 162 162
2.98354 -1.56071 10.83 153 161 168
2.9954 -1.56071 10.83 149 157 164
0 -0 0 135 140 149
0 -0 0 154 159 168
0 -0 0 157 161 161
0 -0 0 158 162 162
0 -0 0 164 164 158
0 -0 0 167 167 161
0 -0 0 171 170 162
0 -0 0 173 172 164
0 -0 0 177 173 166
3.56493 -1.55063 10.76 178 174 167
3.59333 -1.55783 10.81 177 173 166
3.61517 -1.56215 10.84 175 171 164
3.63707 -1.56648 10.87 175 171 164
3.65568 -1.56936 10.89 175 171 164
3.67097 -1.5708 10.9 174 170 163
3.68966 -1.57368 10.92 174 170 163
3.70161 -1.57368 10.92 172 170 164
3.71017 -1.57224 10.91 172 170 164
3.7187 -1.5708 10.9 159 163 168
3.73063 -1.5708 10.9 144 148 153
0 -0 0 148 157 168
0 -0 0 155 164 175
0 -0 0 164 173 177
0 -0 0 166 175 179
0 -0 0 172 176 176
0 -0 0 175 179 179
0 -0 0 188 188 189
0 -0 0 183 183 184
0 -0 0 180 178 179
0 -0 0 180 178 179
0 -0 0 181 179 180
2.0243 -1.60606 11.23 182 180 181
0 -0 0 184 180 180
0 -0 0 184 180 180
0 -0 0 184 180 180
2.02731 -1.5703 10.98 182 178 178
2.0319 -1.56458 10.94 184 177 178
2.04388 -1.56458 10.94 185 178 179
2.05397 -1.56315 10.93 184 177 178
2.06594 -1.56315 10.93 182 175 176
2.076 -1.56172 10.92 184 178 176
2.08795 -1.56172 10.92 185 179 177
2.09991 -1.56172 10.92 186 180 178
2.11186 -1.56172 10.92 185 179 177
2.12381 -1.56172 10.92 185 179 177
2.13577 -1.56172 10.92 184 178 176
2.14772 -1.56172 10.92 184 178 176
2.15967 -1.56172 10.92 185 179 177
2.17162 -1.56172 10.92 184 179 174
2.18358 -1.56172 10.92 185 180 175
2.19352 -1.56029 10.91 185 180 175
2.20344 -1.55886 10.9 186 181 176
2.21334 -1.55743 10.89 187 180 175
2.22117 -1.55457 10.87 188 181 176
2.23307 -1.55457 10.87 189 182 177
2.2429 -1.55314 10.86 188 181 176
2.25064 -1.55028 10.84 190 182 175
2.26042 -1.54885 10.83 189 181 174
2.27017 -1.54742 10.82 190 183 173
2.27991 -1.54599 10.81 190 183 173
2.29174 -1.54599 10.81 190 183 173
2.30357 -1.54599 10.81 190 183 173
2.31326 -1.54456 10.8 190 184 172
2.32509 -1.54456 10.8 190 184 172
2.33474 -1.54313 10.79 190 184 172
2.34655 -1.54313 10.79 191 185 173
2.35837 -1.54313 10.79 191 184 174
2.37018 -1.54313 10.79 191 184 174
2.38199 -1.54313 10.79 192 185 175
2.39158 -1.5417 10.78 190 183 173
2.40115 -1.54027 10.77 189 184 174
2.41294 -1.54027 10.77 193 188 178
2.42248 -1.53884 10.76 191 186 176
2.43425 -1.53884 10.76 190 185 175
2.44376 -1.53741 10.75 190 185 175
2.45324 -1.53598 10.74 189 184 174
2.4627 -1.53455 10.73 189 184 174
2.47214 -1.53312 10.72 189 184 174
2.48156 -1.53169 10.71 189 183 176
2.49328 -1.53169 10.71 189 183 176
2.505 -1.53169 10.71 187 183 176
2.51673 -1.53169 10.71 187 183 176
2.52845 -1.53169 10.71 187 183 176
2.54017 -1.53169 10.71 186 182 175
2.5519 -1.53169 10.71 186 181 176
2.56362 -1.53169 10.71 186 181 176
2.57534 -1.53169 10.71 185 180 175
2.58948 -1.53312 10.72 185 180 175
2.60364 -1.53455 10.73 183 181 175
2.61782 -1.53598 10.74 184 182 176
2.62713 -1.53455 10.73 182 181 173
2.63888 -1.53455 10.73 183 182 174
2.64815 -1.53312 10.72 179 178 170
2.65741 -1.53169 10.71 179 178 170
2.66913 -1.53169 10.71 180 179 171
2.68085 -1.53169 10.71 180 179 171
2.69006 -1.53026 10.7 182 181 173
2.70177 -1.53026 10.7 179 178 170
2.71348 -1.53026 10.7 180 179 171
2.72774 -1.53169 10.71 182 181 173
2.73947 -1.53169 10.71 182 181 173
2.75633 -1.53455 10.73 182 181 173
2.77065 -1.53598 10.74 180 178 172
2.78759 -1.53884 10.76 182 180 174
2.79937 -1.53884 10.76 180 178 172
2.81637 -1.5417 10.78 183 181 175
2.83079 -1.54313 10.79 180 178 172
2.84524 -1.54456 10.8 177 175 169
2.85971 -1.54599 10.81 177 175 169
2.87154 -1.54599 10.81 176 174 168
2.88604 -1.54742 10.82 174 174 168
2.90056 -1.54885 10.83 176 176 170
2.91242 -1.54885 10.83 177 177 171
2.92697 -1.55028 10.84 176 176 170
2.93884 -1.55028 10.84 169 171 165
2.9507 -1.55028 10.84 169 171 165
2.96257 -1.55028 10.84 170 176 175
2.97443 -1.55028 10.84 149 155 154
2.9863 -1.55028 10.84 146 155 159
2.99816 -1.55028 10.84 146 155 159
0 -0 0 132 137 148
0 -0 0 158 163 174
0 -0 0 156 160 165
0 -0 0 156 160 165
0 -0 0 166 165 162
0 -0 0 166 165 162
0 -0 0 168 163 158
0 -0 0 172 167 162
0 -0 0 177 173 166
0 -0 0 174 170 163
3.6033 -1.55028 10.84 175 171 164
3.62184 -1.55314 10.86 177 173 166
3.64042 -1.556 10.88 175 169 162
3.65904 -1.55886 10.9 175 169 162
3.67097 -1.55886 10.9 176 170 163
3.68966 -1.56172 10.92 177 171 164
3.69822 -1.56029 10.91 173 170 167
3.71017 -1.56029 10.91 173 170 167
3.7187 -1.55886 10.9 165 166 174
3.73063 -1.55886 10.9 151 152 160
0 -0 0 156 162 176
0 -0 0 155 161 175
0 -0 0 168 175 179
0 -0 0 169 176 180
0 -0 0 172 176 176
0 -0 0 173 177 177
0 -0 0 178 178 179
0 -0 0 176 176 177
0 -0 0 180 178 179
0 -0 0 181 179 180
0 -0 0 182 178 179
0 -0 0 182 178 179
0 -0 0 182 178 178
0 -0 0 182 178 178
0 -0 0 186 179 180
2.02916 -1.5597 10.99 188 181 182
2.0319 -1.5526 10.94 192 185 186
2.04388 -1.5526 10.94 184 177 178
2.05585 -1.5526 10.94 184 177 178
2.06783 -1.5526 10.94 186 179 180
2.076 -1.54976 10.92 188 182 180
2.08795 -1.54976 10.92 187 181 179
2.09991 -1.54976 10.92 185 179 177
2.11379 -1.55118 10.93 184 178 176
2.12576 -1.55118 10.93 182 176 174
2.13772 -1.55118 10.93 184 178 176
2.15165 -1.5526 10.94 185 179 177
2.16165 -1.55118 10.93 185 179 177
2.17361 -1.55118 10.93 185 179 177
2.18558 -1.55118 10.93 185 179 177
2.19553 -1.54976 10.92 184 178 176
2.20546 -1.54834 10.91 185 179 177
2.21537 -1.54692 10.9 186 180 178
2.22526 -1.5455 10.89 186 180 178
2.23307 -1.54267 10.87 188 181 176
2.2429 -1.54125 10.86 187 180 175
2.25272 -1.53983 10.85 188 180 173
2.2625 -1.53841 10.84 188 180 173
2.27227 -1.53699 10.83 189 181 174
2.28202 -1.53557 10.82 191 183 176
2.29174 -1.53415 10.81 191 183 176
2.30357 -1.53415 10.81 192 184 177
2.31326 -1.53273 10.8 192 185 175
2.32509 -1.53273 10.8 191 184 174
2.33474 -1.53131 10.79 190 183 173
2.34655 -1.53131 10.79 190 183 173
2.35837 -1.53131 10.79 190 183 173
2.37018 -1.53131 10.79 190 183 173
2.37978 -1.52989 10.78 192 185 175
2.38936 -1.52847 10.77 192 185 175
2.39892 -1.52705 10.76 192 185 175
2.4107 -1.52705 10.76 192 185 175
2.42022 -1.52563 10.75 190 185 175
2.42973 -1.52422 10.74 189 184 174
2.44148 -1.52422 10.74 188 183 173
2.45324 -1.52422 10.74 188 183 173
2.46041 -1.52138 10.72 188 183 173
2.46983 -1.51996 10.71 189 184 174
2.48156 -1.51996 10.71 190 185 175
2.49328 -1.51996 10.71 190 185 175
2.505 -1.51996 10.71 189 183 176
2.51673 -1.51996 10.71 190 184 177
2.52845 -1.51996 10.71 187 183 176
2.54017 -1.51996 10.71 187 183 176
2.5519 -1.51996 10.71 187 182 177
2.56601 -1.52138 10.72 187 182 177
2.58015 -1.5228 10.73 186 181 176
2.59431 -1.52422 10.74 185 180 175
2.60607 -1.52422 10.74 185 180 175
2.61782 -1.52422 10.74 187 182 177
2.62958 -1.52422 10.74 183 182 174
2.64134 -1.52422 10.74 184 183 175
2.65309 -1.52422 10.74 180 179 171
2.65989 -1.52138 10.72 179 178 170
2.67162 -1.52138 10.72 172 171 163
2.68085 -1.51996 10.71 178 177 169
2.69257 -1.51996 10.71 178 177 169
2.7043 -1.51996 10.71 178 177 169
2.71602 -1.51996 10.71 180 179 171
2.72774 -1.51996 10.71 183 182 174
2.74458 -1.5228 10.73 183 181 175
2.7589 -1.52422 10.74 183 181 175
2.77323 -1.52563 10.75 178 176 170
2.78759 -1.52705 10.76 180 178 172
2.80197 -1.52847 10.77 180 178 172
2.81637 -1.52989 10.78 179 177 171
2.83079 -1.53131 10.79 178 176 170
2.84787 -1.53415 10.81 178 176 170
2.85971 -1.53415 10.81 179 177 171
2.8742 -1.53557 10.82 177 175 169
2.88871 -1.53699 10.83 174 174 168
2.90324 -1.53841 10.84 175 175 169
2.9151 -1.53841 10.84 175 175 169
2.92697 -1.53841 10.84 174 174 168
2.93884 -1.53841 10.84 169 171 165
2.9507 -1.53841 10.84 168 170 164
2.96257 -1.53841 10.84 162 168 167
2.97443 -1.53841 10.84 155 161 160
2.9863 -1.53841 10.84 142 152 159
2.99816 -1.53841 10.84 143 153 160
0 -0 0 124 129 140
0 -0 0 159 164 175
0 -0 0 154 161 165
0 -0 0 155 162 166
0 -0 0 166 164 165
0 -0 0 164 162 163
0 -0 0 164 162 156
0 -0 0 172 170 164
0 -0 0 177 173 166
0 -0 0 174 170 163
0 -0 0 175 169 162
3.62517 -1.54267 10.87 180 174 167
3.64376 -1.5455 10.89 180 174 167
0 -0 0 176 170 163
3.67097 -1.54692 10.9 175 169 162
3.68628 -1.54834 10.91 177 171 164
3.69822 -1.54834 10.91 180 174 172
3.71357 -1.54976 10.92 168 162 160
3.72211 -1.54834 10.91 149 152 160
3.73405 -1.54834 10.91 142 145 153
0 -0 0 147 151 165
0 -0 0 154 158 172
0 -0 0 164 167 175
0 -0 0 166 169 177
0 -0 0 172 176 176
0 -0 0 172 176 176
0 -0 0 176 176 177
0 -0 0 175 175 176
0 -0 0 178 176 177
0 -0 0 178 176 177
2.03709 -1.60117 11.37 177 175 175
2.04233 -1.59554 11.33 178 176 176
0 -0 0 182 178 178
0 -0 0 180 176 176
0 -0 0 179 175 175
2.03285 -1.55047 11.01 185 181 181
2.03376 -1.54202 10.95 189 182 183
2.04575 -1.54202 10.95 184 177 178
2.05773 -1.54202 10.95 185 178 179
2.06972 -1.54202 10.95 185 178 179
2.0798 -1.54062 10.94 184 178 176
2.08987 -1.53921 10.93 182 176 174
2.10183 -1.53921 10.93 184 178 176
2.11573 -1.54062 10.94 184 178 176
2.12965 -1.54202 10.95 185 179 177
2.13968 -1.54062 10.94 185 179 177
2.15362 -1.54202 10.95 185 179 177
2.1656 -1.54202 10.95 186 180 178
2.17759 -1.54202 10.95 186 180 178
2.18758 -1.54062 10.94 185 179 177
2.19754 -1.53921 10.93 184 178 176
2.20748 -1.5378 10.92 185 179 177
2.2174 -1.53639 10.91 184 178 176
2.2273 -1.53498 10.9 184 178 176
2.23718 -1.53357 10.89 185 179 177
2.24497 -1.53076 10.87 185 179 177
2.25479 -1.52935 10.86 188 179 174
2.2625 -1.52653 10.84 189 180 175
2.27227 -1.52513 10.83 189 181 174
2.28202 -1.52372 10.82 189 181 174
2.29174 -1.52231 10.81 190 182 175
2.30357 -1.52231 10.81 191 183 176
2.31541 -1.52231 10.81 192 184 177
2.32509 -1.5209 10.8 191 183 176
2.33474 -1.51949 10.79 190 183 173
2.34655 -1.51949 10.79 189 182 172
2.35837 -1.51949 10.79 189 182 172
2.36798 -1.51808 10.78 189 182 172
2.37757 -1.51668 10.77 191 184 174
2.38714 -1.51527 10.76 190 183 173
2.39669 -1.51386 10.75 190 183 173
2.40622 -1.51245 10.74 191 184 174
2.41797 -1.51245 10.74 191 184 174
2.42747 -1.51104 10.73 190 183 173
2.43921 -1.51104 10.73 190 183 173
2.44867 -1.50963 10.72 191 184 174
2.45811 -1.50823 10.71 191 184 174
2.46983 -1.50823 10.71 192 185 175
2.48156 -1.50823 10.71 193 186 176
2.49328 -1.50823 10.71 191 184 174
2.505 -1.50823 10.71 190 184 177
2.51908 -1.50963 10.72 190 184 177
2.53317 -1.51104 10.73 189 183 176
2.54492 -1.51104 10.73 190 184 177
2.55904 -1.51245 10.74 190 184 177
2.5708 -1.51245 10.74 189 183 176
2.58256 -1.51245 10.74 184 178 171
2.59673 -1.51386 10.75 184 178 171
2.61092 -1.51527 10.76 184 180 173
2.6227 -1.51527 10.76 186 182 175
2.63448 -1.51527 10.76 186 182 175
2.6438 -1.51386 10.75 186 182 175
2.65556 -1.51386 10.75 185 181 174
2.66485 -1.51245 10.74 185 181 174
2.6766 -1.51245 10.74 181 177 170
2.68836 -1.51245 10.74 182 178 171
2.6976 -1.51104 10.73 184 180 173
2.70682 -1.50963 10.72 185 181 174
2.71856 -1.50963 10.72 183 182 174
2.73029 -1.50963 10.72 182 181 173
2.74714 -1.51245 10.74 182 181 173
2.7589 -1.51245 10.74 182 181 173
2.77581 -1.51527 10.76 179 177 171
2.78759 -1.51527 10.76 178 176 170
2.80457 -1.51808 10.78 180 178 172
2.81898 -1.51949 10.79 179 177 171
2.83342 -1.5209 10.8 178 176 170
2.84787 -1.52231 10.81 179 177 171
2.86235 -1.52372 10.82 180 178 172
2.87951 -1.52653 10.84 179 177 171
2.89137 -1.52653 10.84 177 175 169
2.90324 -1.52653 10.84 177 175 169
2.91779 -1.52794 10.85 176 174 168
2.93237 -1.52935 10.86 176 174 168
2.94426 -1.52935 10.86 174 174 168
2.95615 -1.52935 10.86 169 169 163
2.96803 -1.52935 10.86 160 167 163
2.97718 -1.52794 10.85 156 163 159
2.98905 -1.52794 10.85 146 157 161
3.00093 -1.52794 10.85 146 157 161
0 -0 0 133 140 151
0 -0 0 156 163 174
0 -0 0 155 159 164
0 -0 0 155 159 164
0 -0 0 164 162 163
0 -0 0 174 172 173
0 -0 0 185 183 177
0 -0 0 176 174 168
0 -0 0 179 174 164
0 -0 0 175 170 160
0 -0 0 176 171 161
3.62851 -1.53217 10.88 177 172 162
3.64376 -1.53357 10.89 180 175 165
0 -0 0 177 172 162
3.67097 -1.53498 10.9 175 170 160
3.68966 -1.5378 10.92 176 171 161
3.70161 -1.5378 10.92 173 167 165
3.71357 -1.5378 10.92 164 158 156
3.72552 -1.5378 10.92 154 155 163
3.73747 -1.5378 10.92 149 150 158
0 -0 0 148 153 169
0 -0 0 155 160 176
0 -0 0 162 165 173
0 -0 0 161 164 172
0 -0 0 172 176 176
0 -0 0 172 176 176
0 -0 0 175 175 176
0 -0 0 175 175 176
0 -0 0 178 176 177
0 -0 0 180 178 179
2.06397 -1.60968 11.52 181 179 179
2.05675 -1.59431 11.41 180 178 178
0 -0 0 182 178 178
0 -0 0 182 178 178
0 -0 0 180 176 176
2.03655 -1.54121 11.03 180 176 176
2.03747 -1.53282 10.97 182 179 176
2.04948 -1.53282 10.97 182 179 176
2.05961 -1.53143 10.96 185 179 177
2.06972 -1.53003 10.95 185 179 177
2.0817 -1.53003 10.95 184 178 176
2.09369 -1.53003 10.95 184 178 176
2.10568 -1.53003 10.95 184 178 176
2.11766 -1.53003 10.95 184 178 176
2.12965 -1.53003 10.95 184 178 176
2.14163 -1.53003 10.95 184 178 176
2.15559 -1.53143 10.96 185 179 177
2.16758 -1.53143 10.96 186 180 178
2.17759 -1.53003 10.95 186 180 178
2.18958 -1.53003 10.95 186 180 178
2.20156 -1.53003 10.95 186 180 178
2.21153 -1.52863 10.94 186 180 178
2.21944 -1.52584 10.92 185 179 177
2.22935 -1.52444 10.91 184 178 176
2.23923 -1.52304 10.9 185 179 177
2.24703 -1.52025 10.88 185 179 177
2.25687 -1.51885 10.87 190 181 176
2.26459 -1.51606 10.85 190 181 176
2.27437 -1.51466 10.84 190 181 176
2.28413 -1.51326 10.83 190 181 176
2.29386 -1.51187 10.82 189 180 175
2.30357 -1.51047 10.81 189 180 175
2.31541 -1.51047 10.81 189 180 175
2.32509 -1.50907 10.8 191 182 177
2.33691 -1.50907 10.8 193 185 178
2.34655 -1.50767 10.79 196 188 181
2.35837 -1.50767 10.79 189 181 174
2.36578 -1.50488 10.77 190 182 175
2.37536 -1.50348 10.76 190 183 173
2.38714 -1.50348 10.76 190 183 173
2.39669 -1.50208 10.75 191 184 174
2.40622 -1.50069 10.74 190 183 173
2.41572 -1.49929 10.73 190 183 173
2.4252 -1.49789 10.72 190 183 173
2.43694 -1.49789 10.72 190 184 172
2.44639 -1.4965 10.71 191 185 173
2.45811 -1.4965 10.71 191 185 173
2.46983 -1.4965 10.71 191 185 173
2.48156 -1.4965 10.71 191 184 174
2.49561 -1.49789 10.72 183 176 166
2.50968 -1.49929 10.73 197 190 180
2.52143 -1.49929 10.73 193 186 176
2.53553 -1.50069 10.74 187 182 172
2.54729 -1.50069 10.74 187 182 172
2.56143 -1.50208 10.75 188 182 175
2.57319 -1.50208 10.75 187 181 174
2.58737 -1.50348 10.76 186 181 171
2.59914 -1.50348 10.76 186 181 171
2.61335 -1.50488 10.77 186 181 171
2.62514 -1.50488 10.77 186 181 171
2.63693 -1.50488 10.77 186 181 171
2.64871 -1.50488 10.77 186 181 171
2.65803 -1.50348 10.76 186 181 171
2.66981 -1.50348 10.76 186 181 171
2.68159 -1.50348 10.76 186 181 171
2.69086 -1.50208 10.75 186 181 171
2.70012 -1.50069 10.74 187 181 174
2.71187 -1.50069 10.74 187 181 174
2.72363 -1.50069 10.74 184 180 173
2.73538 -1.50069 10.74 184 180 173
2.7497 -1.50208 10.75 184 180 173
2.76403 -1.50348 10.76 185 181 174
2.77581 -1.50348 10.76 182 180 174
2.79018 -1.50488 10.77 182 180 174
2.80717 -1.50767 10.79 182 180 174
2.8216 -1.50907 10.8 182 180 174
2.83604 -1.51047 10.81 180 178 172
2.85051 -1.51187 10.82 179 177 171
2.865 -1.51326 10.83 180 178 172
2.87951 -1.51466 10.84 180 178 172
2.89404 -1.51606 10.85 176 174 168
2.9086 -1.51745 10.86 176 174 168
2.92317 -1.51885 10.87 176 174 168
2.93507 -1.51885 10.87 176 174 168
2.94697 -1.51885 10.87 177 177 171
2.95887 -1.51885 10.87 169 169 163
2.97077 -1.51885 10.87 161 166 162
2.98266 -1.51885 10.87 156 161 157
2.99456 -1.51885 10.87 153 164 168
3.00646 -1.51885 10.87 142 153 157
0 -0 0 135 142 151
0 -0 0 151 158 167
0 -0 0 160 164 169
0 -0 0 155 159 164
0 -0 0 161 161 162
0 -0 0 173 173 174
0 -0 0 177 172 167
0 -0 0 175 170 165
0 -0 0 179 174 164
0 -0 0 175 170 160
0 -0 0 177 170 160
3.63184 -1.52165 10.89 177 170 160
3.64711 -1.52304 10.9 182 175 165
0 -0 0 179 172 162
3.67097 -1.52304 10.9 176 171 161
3.68966 -1.52584 10.92 175 170 160
3.70161 -1.52584 10.92 171 165 163
3.71357 -1.52584 10.92 172 166 164
3.72552 -1.52584 10.92 174 178 183
3.73747 -1.52584 10.92 161 165 170
0 -0 0 148 153 169
0 -0 0 157 162 178
0 -0 0 158 163 172
0 -0 0 160 165 174
0 -0 0 172 176 176
0 -0 0 172 176 176
0 -0 0 175 175 176
0 -0 0 176 176 177
0 -0 0 180 178 178
0 -0 0 181 179 179
0 -0 0 182 180 180
2.06396 -1.58735 11.45 181 179 179
0 -0 0 181 179 179
0 -0 0 180 178 178
0 -0 0 178 177 174
2.04208 -1.53329 11.06 177 176 173
2.04119 -1.52358 10.99 182 179 176
2.05135 -1.52219 10.98 183 180 177
2.06337 -1.52219 10.98 185 179 177
2.07539 -1.52219 10.98 184 178 176
2.08741 -1.52219 10.98 181 175 173
2.09751 -1.52081 10.97 182 176 174
2.10952 -1.52081 10.97 184 178 176
2.12153 -1.52081 10.97 184 178 176
2.13354 -1.52081 10.97 184 178 176
2.1475 -1.52219 10.98 185 179 177
2.15952 -1.52219 10.98 185 179 177
2.16956 -1.52081 10.97 187 181 179
2.18157 -1.52081 10.97 185 179 177
2.19158 -1.51942 10.96 185 179 177
2.20156 -1.51804 10.95 187 181 179
2.21355 -1.51804 10.95 187 181 179
2.22147 -1.51526 10.93 185 179 177
2.23139 -1.51388 10.92 182 176 174
2.24129 -1.51249 10.91 184 178 176
2.25116 -1.5111 10.9 186 180 178
2.25894 -1.50833 10.88 188 181 176
2.26877 -1.50695 10.87 188 181 176
2.27647 -1.50417 10.85 187 180 175
2.28624 -1.50279 10.84 189 182 177
2.29598 -1.5014 10.83 189 182 177
2.30357 -1.49863 10.81 189 182 177
2.31541 -1.49863 10.81 190 181 176
2.32509 -1.49724 10.8 191 182 177
2.33474 -1.49585 10.79 197 189 182
2.34655 -1.49585 10.79 192 184 177
2.35618 -1.49447 10.78 189 181 174
2.36578 -1.49308 10.77 189 181 174
2.37536 -1.4917 10.76 190 183 173
2.38492 -1.49031 10.75 191 184 174
2.39446 -1.48892 10.74 192 185 175
2.40622 -1.48892 10.74 191 184 174
2.41347 -1.48615 10.72 190 183 173
2.42294 -1.48476 10.71 191 184 174
2.43466 -1.48476 10.71 190 184 172
2.44639 -1.48476 10.71 190 184 172
2.45811 -1.48476 10.71 190 184 172
2.46983 -1.48476 10.71 191 185 173
2.48156 -1.48476 10.71 190 183 173
2.49561 -1.48615 10.72 188 181 171
2.50968 -1.48754 10.73 192 184 177
2.52378 -1.48892 10.74 190 182 175
2.53553 -1.48892 10.74 188 180 173
2.54729 -1.48892 10.74 186 178 171
2.56143 -1.49031 10.75 183 177 170
2.57559 -1.4917 10.76 186 180 173
2.59218 -1.49447 10.78 186 181 171
2.60397 -1.49447 10.78 184 179 169
2.6182 -1.49585 10.79 184 179 169
2.63001 -1.49585 10.79 186 181 171
2.64182 -1.49585 10.79 187 182 172
2.65363 -1.49585 10.79 187 182 172
2.66544 -1.49585 10.79 186 181 171
2.67725 -1.49585 10.79 187 182 172
2.68657 -1.49447 10.78 184 179 169
2.69587 -1.49308 10.77 184 179 169
2.70514 -1.4917 10.76 188 182 175
2.71692 -1.4917 10.76 188 182 175
2.7287 -1.4917 10.76 186 180 173
2.74048 -1.4917 10.76 186 180 173
2.75226 -1.4917 10.76 186 181 176
2.7666 -1.49308 10.77 186 181 176
2.77839 -1.49308 10.77 185 183 177
2.79277 -1.49447 10.78 185 183 177
2.80717 -1.49585 10.79 185 183 177
2.8216 -1.49724 10.8 180 178 172
2.83604 -1.49863 10.81 180 178 172
2.85314 -1.5014 10.83 178 176 170
2.86764 -1.50279 10.84 182 180 174
2.88216 -1.50417 10.85 179 177 171
2.89671 -1.50556 10.86 175 173 167
2.91127 -1.50695 10.87 175 173 167
2.92317 -1.50695 10.87 176 175 167
2.93777 -1.50833 10.88 175 174 166
2.94968 -1.50833 10.88 168 169 161
2.96159 -1.50833 10.88 163 164 156
2.9735 -1.50833 10.88 159 163 162
